0.85200000 2.23699999 0.29200000
1.19500005 1.61000001 0.01500000
0.53600001 1.77999997 2.51699996
1.24000001 2.24399996 2.18600011
0.69400001 1.75000000 2.51799989
1.19200003 2.24499989 2.30100012
1.35699999 1.74800003 2.51999998
1.35200000 2.24000001 1.93299997
0.86199999 2.24200010 0.88900000
0.99400002 1.66400003 2.51900005
0.80000001 1.59599996 0.01700000
1.40900004 1.53100002 0.01400000
0.98100001 2.24399996 2.18000007
0.54100001 2.24799991 2.05699992
0.72600001 2.24000001 2.44199991
0.58800000 2.24200010 0.87699997
0.97799999 1.75500000 0.01600000
1.49500000 2.21700001 1.57400000
0.60699999 2.24699998 2.23200011
1.43799996 1.90300000 2.51999998
0.75599998 1.78299999 2.51799989
1.36500001 2.12400007 0.01400000
1.43400002 2.22000003 1.34800005
0.62400001 2.24699998 2.06200004
0.76999998 1.59599996 2.51900005
1.16299999 2.22300005 0.06000000
0.68900001 2.24300003 1.03199995
0.72899997 1.51999998 2.51900005
0.90100002 1.90900004 2.51799989
0.81400001 2.24399996 2.21799994
0.75700003 1.93400002 2.51699996
0.87500000 2.22499990 1.64900005
1.14800000 2.21900010 1.48099995
1.44900000 1.97300005 2.51999998
0.55400002 2.12899995 2.51300001
0.93300003 2.21600008 2.46700001
1.04200006 2.22000003 1.49199998
0.60900003 2.23499990 0.16500001
1.39999998 2.22000003 1.35200000
1.20500004 2.24099994 0.56199998
1.34200001 2.24499989 2.39599991
1.36600006 2.23499990 0.15500000
0.84299999 2.24200010 0.93099999
0.99699998 1.81400001 2.51900005
0.72200000 2.23399997 0.15000001
0.68199998 2.22300005 2.46099997
0.94700003 2.23499990 0.22499999
0.80400002 2.24099994 0.79699999
0.62300003 2.24499989 1.59200001
0.71499997 1.60500002 2.51799989
0.66000003 1.76499999 0.01800000
0.51599997 2.24600005 2.43799996
1.27600002 2.22000003 1.35699999
0.92799997 2.24099994 2.02099991
1.25699997 2.24399996 2.20700002
1.30900002 2.22900009 1.12899995
1.30999994 2.24200010 0.78200001
1.25300002 2.23200011 2.06999993
1.19200003 2.22499990 1.17100000
0.97399998 2.24099994 0.86400002
1.41700006 2.17100000 2.51999998
1.02699995 2.23799992 2.06999993
0.65200001 2.24600005 1.96300006
1.07700002 2.24099994 0.82900000
1.38100004 2.23900008 0.37599999
0.69800001 2.24300003 1.10200000
0.89099997 2.22499990 1.76699996
1.46500003 2.05999994 0.01400000
1.06500006 2.22199988 1.28799999
1.45400000 2.21499991 1.72399998
0.59200001 2.23600006 0.22300000
0.91799998 2.23399997 1.90699995
1.05999994 1.70299995 2.51900005
0.55500001 2.24200010 0.78100002
0.68900001 2.23799992 0.42600000
1.36800003 2.24499989 2.39299989
1.37500000 2.24000001 0.43700001
1.19799995 2.23200011 0.12100000
1.18700004 2.20799994 2.47600007
0.83600003 1.51499999 2.51900005
1.26699996 2.23600006 0.27800000
0.67199999 2.23699999 0.32699999
1.19299996 1.85899997 2.51900005
0.98799998 2.24099994 2.07399988
1.41499996 2.24399996 2.23099995
1.27300000 2.22300005 1.19500005
1.36800003 2.24200010 0.75000000
1.02699995 2.03800011 0.01600000
0.95599997 2.23799992 0.35800001
1.24800003 2.22600007 2.01999998
0.70599997 2.23200011 0.13699999
0.71799999 2.20799994 0.02000000
0.62599999 2.24600005 1.96300006
0.98100001 1.82500005 2.51900005
0.73299998 2.23799992 0.40000001
0.86900002 1.57299995 0.01700000
0.51999998 1.59800005 0.01900000
0.87300003 1.71000004 0.01700000
0.58399999 2.23499990 1.36399996
0.84700000 2.24200010 2.04999995
0.79900002 2.24399996 2.20799994
0.79500002 1.54900002 2.51900005
1.07700002 2.23699999 0.32800001
0.64800000 2.24399996 1.12100005
0.61199999 2.24600005 1.89300001
0.76700002 1.63900006 2.51799989
1.37199998 1.55700004 0.01500000
1.09300005 2.23600006 2.06999993
1.35699999 2.21499991 1.61600006
1.11199999 2.21900010 1.73199999
0.68900001 1.54400003 0.01800000
1.41499996 2.24099994 0.60100001
1.00399995 2.23699999 1.93099999
0.84299999 2.23900008 0.62400001
1.12100005 2.24399996 2.16400003
1.28600001 2.24000001 0.50199997
0.63700002 2.24300003 0.95300001
0.86799997 2.22399998 0.07700000
1.28400004 2.23799992 0.37500000
0.63000000 1.77600002 2.51699996
1.17700005 1.90600002 2.51900005
1.08500004 1.69200003 0.01500000
0.65300000 1.88000000 0.01800000
1.19700003 2.24200010 0.98699999
0.70400000 2.22399998 0.08900000
1.18400002 1.57099998 2.51900005
0.59200001 2.24000001 0.64600003
0.59799999 2.23799992 0.47700000
0.73500001 1.54400003 0.01800000
1.32299995 1.62300003 0.01500000
1.34000003 2.21399999 2.47000003
0.95099998 1.57900000 2.51900005
0.95499998 1.67100000 2.51900005
0.61799997 2.11700010 0.02000000
1.48000002 1.74600005 0.01400000
0.75800002 2.24399996 1.96000004
0.54200000 2.23799992 0.42800000
1.35699999 2.21799994 1.45299995
0.70499998 1.79400003 2.51799989
0.73500001 2.24399996 1.93400002
1.07400000 2.22000003 1.63399994
0.97399998 2.24099994 0.81199998
1.46700001 1.68599999 2.52099991
0.97100002 1.96500003 0.01600000
1.03600001 2.23200011 0.11200000
0.81300002 2.23900008 0.50099999
0.89099997 1.57000005 0.01700000
0.73100001 2.24200010 0.94099998
1.40900004 2.22199988 1.19400001
1.40799999 1.81099999 0.01400000
1.29299998 2.24300003 1.01199996
0.63599998 2.23600006 0.24400000
1.18200004 2.23600006 0.29699999
1.13000000 1.89300001 0.01500000
0.51499999 2.22000003 1.26600003
0.69099998 1.96000004 0.01800000
1.07900000 2.20499992 0.01600000
1.27699995 2.24300003 1.04900002
0.89700001 2.24499989 2.36999989
0.90200001 2.24200010 0.99800003
0.56699997 1.51100004 2.51799989
0.99100000 1.98899996 0.01600000
1.27199996 2.17899990 2.50999999
1.45899999 2.21600008 1.66299999
0.60699999 2.24499989 1.60000002
1.35099995 2.24399996 2.15300012
0.52600002 2.24799991 2.21799994
1.15100002 2.01200008 2.51900005
1.38000000 2.13700008 0.01400000
1.11000001 2.21900010 1.67299998
0.73199999 2.03299999 2.51699996
1.28100002 1.52800000 2.51999998
0.78299999 2.08999991 0.01800000
1.33500004 2.17499995 2.51500010
0.52600002 2.22399998 1.38999999
1.25800002 1.90900004 0.01400000
0.94599998 2.22399998 1.22599995
1.24300003 2.21499991 1.73500001
0.53700000 1.76400006 2.51699996
0.90600002 1.71700001 0.01600000
1.41600001 2.24300003 1.02999997
1.34800005 2.23600006 0.22700000
0.96499997 2.24200010 1.01499999
0.71499997 1.96399999 2.51699996
1.20899999 2.21499991 0.02500000
1.09200001 1.78699994 2.51900005
0.96899998 2.23900008 0.50099999
1.05700004 2.22000003 1.67400002
0.88099998 1.52499998 0.01700000
1.42600000 2.21700001 2.02600002
1.43400002 2.24399996 2.32399988
1.06700003 2.24300003 1.06500006
1.27499998 1.52300000 0.01500000
1.14400005 1.79600000 2.51900005
1.15999997 2.24200010 0.93900001
0.80599999 2.23399997 0.16500001
1.37899995 2.24099994 0.48699999
1.40699995 1.90300000 0.01400000
1.19299996 1.51600003 0.01500000
0.99900001 1.79499996 2.51900005
1.48099995 2.19099998 2.49699998
0.77800000 2.24399996 2.12199998
1.00600004 1.96000004 2.51900005
1.21899998 2.24200010 0.79900002
1.36699998 1.54100001 0.01500000
1.01400006 2.23699999 0.33199999
1.48300004 2.23900008 1.93200004
0.83800000 1.62899995 2.51900005
1.05499995 2.24200010 0.96399999
1.33899999 2.23699999 0.29699999
0.73000002 1.77699995 2.51799989
1.22399998 2.23900008 0.43700001
0.75900000 2.23900008 0.60299999
1.07200003 2.22499990 1.79499996
1.16499996 2.21799994 1.51400006
1.27600002 2.24200010 0.89999998
0.61000001 2.24000001 1.37899995
0.76599997 2.24600005 2.34100008
0.88300002 2.23000002 1.18599999
0.77399999 1.80599999 2.51799989
1.43700004 2.01600003 0.01400000
1.02199996 1.82400000 2.51900005
0.87900001 1.96899998 2.51799989
0.88000000 1.87100005 0.01600000
0.86799997 2.23600006 0.28400001
0.72399998 2.24399996 1.94900000
0.85799998 2.22499990 1.40300000
0.90200001 2.08800006 2.51699996
0.59100002 2.22799993 0.12100000
1.42600000 1.82000005 2.51999998
0.77499998 2.23300004 1.42200005
1.22599995 2.24499989 2.32900000
0.66000003 2.24699998 2.30299997
1.36699998 2.21799994 1.41199994
0.85699999 1.71300006 2.51900005
0.50900000 2.11999989 2.51200008
1.15799999 2.24300003 1.04900002
1.43200004 1.95799994 0.01400000
1.15600002 2.22300005 1.19500005
1.30700004 2.23900008 0.41800001
1.32799995 1.89600003 2.51999998
0.95400000 2.22300005 1.68200004
0.99400002 2.22099996 1.37000000
0.94400001 2.24000001 0.70800000
0.68599999 2.24699998 2.39400005
0.63900000 2.24699998 2.32299995
0.80400002 1.95500004 0.01700000
0.69700003 2.24000001 0.71600002
1.25899994 2.24099994 0.57400000
1.27999997 2.21600008 1.59300005
0.64999998 1.66299999 2.51799989
0.79500002 2.14199996 2.51699996
1.03499997 2.23399997 1.12800002
0.95999998 1.77100003 0.01600000
1.36199999 2.24300003 1.01199996
0.92799997 1.60000002 2.51900005
0.69000000 2.24200010 0.83899999
0.99500000 1.71000004 0.01600000
0.98000002 1.62000000 0.01600000
1.05799997 2.23699999 0.35800001
0.78600001 2.16199994 2.51600003
1.21899998 2.23900008 0.47299999
0.60500002 2.24099994 2.44300008
1.13499999 2.24099994 0.78299999
1.28299999 2.24099994 0.64899999
1.20700002 2.23799992 0.38600001
1.46000004 2.24399996 2.32200003
1.37899995 2.21799994 1.45700002
1.29600000 2.22700000 2.00600004
1.04900002 2.24200010 0.89899999
1.46599996 2.24399996 2.29399991
1.34899998 2.22099996 1.23699999
0.74900001 2.24600005 2.38299990
1.46899998 2.01900005 2.51999998
0.54299998 1.61899996 0.01900000
1.06500006 2.02999997 2.51900005
0.55000001 1.89499998 0.01900000
1.22200000 2.16899991 0.01500000
1.38300002 2.21700001 1.50600004
0.73600000 2.24600005 2.27399993
0.89600003 1.69900000 2.51900005
1.32900000 2.21499991 1.59800005
1.14999998 2.24099994 0.67100000
0.64700001 1.58299994 0.01800000
0.70099998 2.23600006 0.23999999
0.87000000 1.75699997 0.01700000
1.11800003 2.01900005 2.51900005
0.77100003 2.24099994 0.83999997
1.20700002 2.22799993 2.05500007
1.03600001 1.89699996 2.51900005
1.28199995 1.63399994 0.01500000
1.49500000 2.24200010 0.77200001
1.46300006 2.24099994 0.46300000
0.81000000 1.63000000 0.01700000
0.61299998 2.23900008 1.29499996
1.48899996 1.62100005 0.01400000
1.06700003 1.65499997 2.51900005
0.63800001 2.23699999 0.35100001
0.61699998 2.24699998 2.11599994
0.70099998 2.24399996 1.66700006
0.73500001 2.24300003 1.03699994
1.19700003 2.21600008 1.59300005
1.37600005 2.22499990 1.99399996
1.26699996 1.51699996 2.51699996
0.69900000 2.23799992 0.38999999
0.79600000 2.23000002 1.24399996
0.81400001 2.24399996 2.24000001
1.06200004 2.24499989 2.35800004
1.10200000 2.03099990 2.51900005
0.53299999 2.22799993 1.59099996
1.00600004 2.24000001 0.60299999
0.82700002 2.24099994 0.86299998
0.96899998 2.23900008 0.47999999
0.62400001 2.23699999 0.28500000
1.46099997 2.09800005 0.01400000
1.38900006 1.55900002 2.52099991
0.90399998 1.59700000 2.51900005
0.86500001 2.07900000 2.51699996
1.15600002 2.23600006 0.28000000
0.85299999 2.23300004 1.89900005
1.39300001 2.24099994 0.66700000
0.67600000 2.21099997 0.02000000
1.02300000 2.19400001 0.01700000
1.38900006 1.59800005 0.01500000
0.86100000 1.62199998 0.01700000
0.97299999 1.93900001 2.51799989
1.27600002 2.21499991 1.62300003
1.25199997 2.22099996 1.26900005
0.95700002 2.24399996 2.12599993
0.57999998 2.23699999 0.38800001
0.82400000 2.23399997 0.16599999
1.31299996 1.61399996 2.51999998
0.97000003 2.11599994 2.51799989
0.77700001 2.24499989 2.23300004
1.47800004 1.58800006 0.01400000
0.54600000 1.93200004 0.01900000
0.66000003 1.56599998 0.01800000
1.17600000 1.67799997 0.01500000
1.02600002 1.95899999 2.51900005
1.09399998 2.17100000 2.51799989
0.51099998 2.23900008 0.54299998
0.73299998 2.24399996 2.00999999
0.81000000 2.22799993 1.24100006
0.59600002 2.24300003 1.61699998
0.51700002 1.75999999 0.02000000
0.82200003 2.22900009 1.62300003
1.37000000 2.22099996 2.00900006
0.90300000 2.22399998 1.55999994
0.77300000 2.12400007 0.01800000
0.61299998 2.08500004 0.02000000
0.62300003 2.24000001 0.67799997
0.67100000 1.73099995 2.51799989
1.13800001 2.23000002 1.13999999
1.06299996 2.23799992 0.39600000
1.01100004 1.79499996 0.01600000
0.52300000 2.23699999 0.32300001
1.22300005 2.24200010 0.83700001
1.35699999 2.24099994 0.64700001
1.21399999 2.21900010 1.42799997
0.97700000 2.23600006 0.29600000
0.62199998 1.66900003 0.01800000
0.70499998 2.24399996 1.63100004
1.29999995 2.21499991 1.63399994
1.07900000 2.22099996 0.05400000
1.45799994 2.06399989 2.51999998
1.04900002 2.22700000 1.17600000
0.88599998 1.65999997 2.51900005
0.84500003 2.22499990 1.23199999
0.99199998 2.01500010 2.51799989
0.97799999 2.22600007 1.19700003
1.34500003 2.21399999 0.01900000
1.36300004 2.24399996 2.23900008
0.89399999 2.21300006 0.02100000
1.23500001 1.93900001 2.51900005
1.05200005 1.52900004 2.51900005
1.11600006 1.77400005 0.01500000
1.31700003 1.88699996 0.01400000
0.91600001 2.22300005 1.29299998
1.09200001 2.22000003 1.41600001
1.40699995 2.24399996 2.18000007
0.99100000 1.87100005 2.51900005
1.38800001 2.22099996 2.00600004
0.86400002 1.77699995 2.51799989
1.18200004 2.24099994 0.62699997
1.41100001 2.24300003 1.04799998
1.48099995 2.22099996 2.46300006
0.68599999 2.24499989 1.99600005
1.46800005 2.24099994 0.59799999
0.99299997 1.95400000 0.01600000
1.23800004 2.21300006 0.01500000
1.20200002 2.24399996 2.09800005
1.07299995 2.22000003 1.43900001
0.93800002 1.90799999 2.51799989
0.72299999 2.23900008 1.46500003
1.49399996 1.88000000 0.01400000
0.77100003 1.51199996 2.51900005
0.98600000 2.24300003 1.04900002
0.77499998 1.71099997 2.51799989
1.28900003 2.22499990 0.06600000
1.19299996 2.15100002 0.01500000
1.27400005 2.24200010 0.82700002
1.32500005 2.24200010 0.83600003
1.46500003 2.22499990 2.02999997
0.75599998 2.23399997 1.22099996
0.50199997 2.24300003 0.91399997
0.56599998 1.87800002 2.51699996
0.63599998 2.11100006 0.02000000
0.76700002 1.57200003 0.01700000
0.57499999 2.24399996 1.10399997
1.20200002 2.21700001 1.55400002
0.62199998 1.57700002 0.01800000
1.16299999 2.22300005 1.22399998
1.37399995 2.01200008 2.51999998
0.71899998 2.24399996 1.76400006
1.29999995 1.94200003 2.51999998
1.49600005 2.24099994 0.42399999
0.90899998 2.08800006 0.01700000
0.73199999 2.14599991 0.01900000
0.61699998 2.23699999 0.41600001
1.19000006 1.51199996 2.51900005
0.51099998 1.82900000 0.02000000
1.16600001 1.95000005 0.01500000
0.50599998 1.74300003 0.02000000
1.01999998 2.21700001 2.46499991
0.69900000 2.21300006 0.02800000
0.67199999 2.24300003 1.08500004
0.74599999 1.54100001 2.51900005
1.08299994 2.24000001 2.44000006
1.05700004 2.23499990 0.24900000
0.56099999 2.06699991 0.02000000
0.76300001 1.64800000 0.01700000
1.30499995 2.15899992 0.01400000
0.88200003 2.24200010 0.89200002
0.83499998 1.61399996 2.51900005
1.47399998 1.79900002 2.52099991
0.54100001 1.57000005 2.51799989
0.89899999 1.51699996 0.01700000
1.21300006 1.55900002 0.01500000
0.81599998 2.24200010 0.91000003
1.13000000 1.84800005 2.51900005
0.82099998 1.84700000 2.51799989
1.30299997 1.83700001 0.01400000
0.90100002 2.23099995 1.17400002
0.95499998 2.23399997 0.15099999
0.67400002 1.67200005 2.51799989
0.75300002 2.08500004 2.51699996
0.68199998 2.23799992 0.51999998
0.56400001 2.23399997 1.51699996
0.98799998 2.22199988 1.70400000
1.27600002 2.21900010 1.41400003
1.24399996 2.23600006 1.98800004
0.58600003 2.23699999 0.35200000
1.11099994 2.09599996 0.01500000
0.59399998 2.23799992 0.44200000
0.58800000 2.24699998 1.93900001
1.09599996 2.23399997 0.20999999
0.84100002 2.23799992 0.39600000
1.14999998 2.11299992 0.01500000
1.42700005 2.07699990 0.01400000
1.30799997 1.99500000 0.01400000
1.32400000 2.11199999 0.01400000
0.50900000 2.24799991 2.01200008
1.22399998 2.24099994 0.64700001
0.95499998 2.22300005 1.51900005
0.89099997 1.57500005 2.51900005
1.32299995 2.23300004 0.11600000
0.59899998 1.73500001 0.01900000
1.13300002 2.22300005 0.06100000
0.66100001 2.24399996 1.20000005
0.80900002 1.58399999 0.01700000
0.94700003 2.23900008 0.51400000
1.39199996 2.23799992 2.09400010
0.92299998 1.63999999 0.01600000
0.76200002 2.23799992 0.37200001
1.10099995 2.24499989 2.25900006
1.18700004 2.22300005 1.22899997
1.12300003 2.24000001 1.07000005
0.78799999 2.23900008 1.80299997
1.38100004 1.68799996 0.01400000
1.15199995 2.24200010 0.84200001
0.91100001 2.04099989 0.01700000
0.82499999 1.62399995 0.01700000
1.25000000 1.76999998 2.51999998
0.98299998 2.23699999 1.94200003
0.75400001 1.73199999 2.51799989
1.47500002 2.01099992 0.01400000
0.68800002 1.61600006 0.01800000
1.46899998 2.22099996 1.35500002
0.71899998 2.24399996 1.68599999
0.63200003 2.24600005 1.92100000
0.74400002 1.60899997 0.01700000
0.51499999 1.63600004 2.51699996
0.99100000 2.20700002 0.01700000
1.09800005 2.21900010 1.51400006
0.78600001 2.14199996 0.01800000
1.32200003 2.23499990 0.20100001
0.97799999 2.23399997 0.16400000
0.85900003 2.24099994 0.79600000
0.93900001 2.07800007 2.51799989
1.09099996 2.24200010 0.91799998
1.13100004 2.24200010 0.93199998
1.38300002 2.20799994 0.01400000
0.53299999 1.66199994 0.01900000
1.04700005 2.23399997 0.20200001
1.42100000 1.51800001 0.01400000
1.11500001 2.08100009 2.51900005
1.18099999 2.07900000 2.51900005
0.94800001 2.22300005 1.27600002
1.03799999 2.24099994 0.74699998
1.46200001 2.21499991 0.03100000
1.06299996 1.96500003 2.51900005
1.38100004 2.23300004 1.96899998
1.46399999 2.24399996 2.12899995
1.17700005 2.23699999 1.08899999
0.87199998 2.23399997 2.44600010
1.00000000 1.73500001 2.51900005
0.69900000 1.85399997 0.01800000
0.96499997 1.79200006 2.51900005
1.49899995 2.21799994 1.53999996
0.56800002 1.83800006 0.01900000
0.95800000 2.24000001 0.62400001
1.45400000 2.22000003 1.39699996
0.91799998 1.87100005 0.01600000
0.79699999 1.51100004 2.51900005
1.48000002 2.08200002 2.51999998
0.66100001 2.01500010 2.51600003
0.98500001 2.23000002 1.16600001
0.59600002 2.02600002 2.51600003
1.12800002 2.24200010 0.85500002
0.59500003 2.23799992 1.40400004
1.16700006 2.23799992 0.38100001
0.59100002 2.24699998 2.35899997
0.98199999 2.22199988 1.38199997
0.53500003 1.55599999 0.01900000
1.09599996 1.60500002 0.01500000
0.56099999 2.24300003 0.97600001
0.54000002 2.23499990 0.17200001
1.00600004 2.23900008 0.49700001
0.84600002 1.70000005 0.01700000
1.33399999 2.21300006 1.70000005
1.45599997 1.71700001 2.52099991
1.33599997 1.66799998 0.01500000
1.33800006 2.24200010 0.80699998
0.83999997 1.98199999 0.01700000
0.54200000 2.24300003 0.95300001
0.55599999 2.23399997 1.57500005
1.30299997 2.24200010 0.76599997
1.34099996 1.50399995 2.48600006
1.41299999 1.71700001 0.01400000
1.36399996 2.23499990 0.18000001
0.96100003 2.24000001 0.56000000
1.25100005 1.57500005 2.51999998
0.68000001 1.62500000 2.51799989
1.03999996 1.86699998 0.01600000
1.39600003 1.76900005 0.01400000
0.59399998 1.52300000 2.51799989
0.83399999 2.23499990 0.18099999
0.82499999 1.65499997 2.51900005
1.16900003 2.23099995 2.45000005
1.49500000 2.22199988 1.21500003
0.60000002 2.24799991 2.28500009
1.26499999 2.24099994 0.62199998
0.64700001 2.23699999 0.33399999
0.57900000 2.24200010 1.72000003
0.75800002 2.24300003 1.89499998
1.48000002 2.23699999 0.17399999
1.26600003 2.21499991 1.72099996
0.84700000 2.22600007 1.48599994
1.07700002 1.64800000 0.01500000
1.39699996 2.23600006 1.90600002
1.33899999 2.05599999 2.51999998
0.73600000 2.24399996 1.87800002
1.22000003 2.24499989 2.28800011
0.98000002 2.22399998 1.23000002
1.16199994 1.78799999 2.51900005
0.54500002 1.52300000 2.51799989
1.39699996 2.21600008 1.55100000
1.33700001 1.54400003 2.52099991
1.27499998 2.04999995 0.01400000
1.48300004 2.22900009 0.12100000
0.54000002 2.24799991 2.30200005
0.79500002 1.63800001 2.51900005
1.14600003 2.21799994 1.57599998
1.04299998 2.24499989 2.30900002
1.40300000 2.24099994 0.63700002
1.35399997 1.81400001 2.51999998
1.01199996 1.77400005 2.51900005
1.34399998 2.11400008 0.01400000
1.10099995 2.24099994 1.99199998
0.85399997 2.24399996 2.15700006
0.55599999 2.24099994 0.72899997
0.59799999 2.24699998 2.15700006
0.80199999 1.76699996 2.51799989
1.33099997 2.21799994 1.78100002
1.02400005 2.24200010 0.93199998
0.68500000 1.86399996 2.51699996
1.09500003 1.89600003 0.01500000
0.66200000 2.24499989 1.81799996
1.48899996 2.23399997 1.87600005
1.31799996 2.22300005 1.17799997
1.00699997 2.23900008 0.47400001
0.74500000 2.24399996 1.79299998
0.50199997 1.65499997 2.51699996
1.21599996 1.77800000 0.01500000
0.96100003 2.24099994 2.01200008
1.13900006 2.23799992 0.39100000
1.07099998 2.22000003 1.53199995
1.24500000 2.24099994 0.64999998
1.13499999 2.23399997 1.86399996
1.43799996 1.51600003 2.51900005
1.03400004 1.72399998 0.01600000
1.26900005 2.24499989 2.33699989
0.74699998 2.24200010 0.92199999
0.82999998 2.23499990 1.92299998
1.12699997 2.21900010 1.47099996
0.81199998 1.87000000 2.51799989
1.20799994 2.23300004 1.10699999
0.95999998 2.20600009 2.47700000
1.34000003 2.24399996 2.26699996
1.28900003 1.75000000 2.51999998
0.79799998 2.24300003 2.09899998
1.26999998 2.01500010 2.51999998
0.71499997 1.88499999 2.51699996
0.61900002 2.24600005 1.65699995
0.52499998 2.03699994 0.02000000
1.48399997 1.62800002 2.52099991
1.39400005 1.50600004 0.01400000
0.89200002 2.22499990 1.59899998
0.57800001 2.24699998 1.98500001
1.42200005 1.88499999 0.01400000
1.04900002 1.53799999 0.01600000
1.26300001 2.24000001 0.52800000
0.95200002 2.22399998 1.25899994
1.24199998 2.21700001 1.52999997
0.60000002 2.00300002 2.51600003
0.66200000 1.81799996 0.01800000
0.66500002 1.78799999 2.51699996
1.32500005 2.21600008 1.56900001
0.76599997 2.23799992 0.45400000
0.85100001 2.11299992 2.51699996
0.81099999 2.23499990 0.20600000
0.79600000 2.23099995 1.50800002
1.28299999 2.24000001 2.09100008
0.97299999 2.22900009 1.81400001
1.01900005 1.85500002 0.01600000
1.30100000 1.65999997 0.01500000
1.25800002 2.24099994 0.66600001
1.07099998 2.24200010 0.92000002
1.11300004 2.21900010 1.48899996
1.29600000 2.08599997 2.51900005
0.79799998 1.65300000 0.01700000
0.74800003 1.90999997 2.51699996
1.17700005 2.23799992 1.91799998
0.70599997 2.24300003 1.49100006
0.60799998 1.77100003 0.01900000
1.16199994 2.21900010 1.76499999
1.21899998 2.05500007 0.01500000
1.08099997 1.77999997 0.01500000
1.24600005 1.50699997 2.49300003
1.31099999 2.23300004 0.12700000
1.21399999 2.21900010 1.45299995
1.47899997 2.24300003 1.00800002
0.50099999 2.24799991 1.98399997
0.61000001 2.24399996 1.17799997
0.82400000 2.23799992 0.40900001
1.30900002 2.21700001 1.50000000
1.29400003 1.55299997 0.01500000
0.61000001 2.23699999 1.26400006
1.06799996 2.24200010 0.87900001
1.17200005 2.23900008 1.94299996
0.52100003 2.24799991 2.23699999
0.81699997 2.14100003 2.51699996
0.51200002 2.22499990 0.10800000
1.41400003 2.24200010 0.88599998
0.82200003 2.24099994 0.81400001
1.48899996 2.21900010 1.46300006
0.99599999 2.11100006 2.51799989
0.94700003 2.23300004 0.12100000
1.08800006 2.24000001 0.56800002
1.18900001 2.24499989 2.23200011
0.52100003 2.23699999 0.38299999
0.52999997 2.04399991 2.51399994
0.81900001 2.22900009 1.45200002
1.33500004 2.24200010 0.85900003
0.66700000 2.23300004 0.14200000
1.01100004 1.73599994 0.01600000
0.98100001 1.51199996 0.01600000
0.90499997 2.23399997 0.16400000
1.39800000 2.14400005 0.01400000
0.79200000 2.23300004 0.13200000
1.49600005 2.24099994 0.38699999
1.05799997 2.22000003 1.47000003
1.47899997 2.23499990 2.01799989
0.76099998 2.24499989 2.19899988
0.56199998 1.53199995 2.51799989
1.34599996 2.24099994 0.56500000
1.47500002 2.21499991 1.72200000
1.49699998 1.67400002 0.01400000
0.68099999 2.20900011 2.47600007
1.47899997 2.24399996 2.32900000
0.84399998 2.23799992 0.33399999
0.73000002 2.17499995 2.51200008
1.35699999 2.24200010 0.91900003
0.87400001 2.20199990 0.01800000
0.51499999 1.58299994 0.01900000
0.82599998 1.54299998 0.01700000
0.77499998 2.17400002 0.01900000
1.22700000 2.22000003 1.77999997
0.75700003 2.24200010 0.89499998
1.12100005 2.21900010 1.64499998
0.59500003 1.86500001 2.51699996
0.64399999 1.78299999 2.51699996
0.92900002 2.22399998 1.24600005
0.89700001 1.98399997 0.01600000
1.00399995 1.64499998 0.01600000
0.61100000 2.02500010 0.01900000
1.48099995 2.24000001 1.95500004
0.57800001 2.24399996 1.78100002
1.33299994 1.86600006 0.01400000
1.00199997 2.22199988 1.54799998
1.10000002 2.22399998 1.19900000
0.89800000 1.75500000 2.51900005
1.47599995 2.21600008 1.66799998
0.56800002 2.23600006 0.23800001
0.50500000 2.18799996 2.50000000
0.73299998 2.22199988 0.07600000
0.66900003 2.24000001 0.66100001
0.83899999 2.23399997 0.14600000
0.64999998 2.24499989 1.72800004
0.94499999 2.24499989 2.29500008
0.69900000 2.24699998 2.30299997
0.75999999 1.69799995 2.51799989
0.84700000 2.24600005 2.42700005
0.91200000 2.24300003 1.11099994
0.76899999 2.24200010 1.82500005
0.72399998 2.04600000 2.51699996
1.25500000 2.24099994 1.96700001
0.81400001 2.24300003 1.13100004
0.65799999 2.24399996 1.28900003
0.93099999 1.52999997 2.51900005
1.16499996 2.21799994 1.74100006
0.75000000 2.21099997 2.47199988
0.59399998 2.24699998 2.09599996
0.73900002 2.24000001 0.65399998
0.94900000 1.51600003 0.01600000
0.70200002 2.24399996 1.85099995
1.07799995 2.23200011 0.10800000
1.39300001 2.19400001 2.49300003
0.75099999 2.24399996 1.92499995
0.97799999 2.23499990 0.23600000
1.48399997 2.10299993 2.51999998
1.29799998 2.24000001 0.48199999
0.82900000 1.85599995 0.01700000
0.73000002 2.21700001 2.46600008
1.08399999 2.24499989 2.31699991
1.30299997 1.76600003 2.51999998
0.57300001 2.24699998 1.92600000
1.34300005 1.52600002 0.01500000
1.28600001 2.21799994 1.46700001
1.03499997 2.10800004 2.51799989
1.04700005 2.23499990 0.23199999
0.65899998 2.24699998 2.36199999
0.66399997 1.87100005 2.51699996
1.13999999 2.18300009 0.01600000
0.70899999 2.24200010 2.43899989
0.53700000 2.23099995 1.76900005
1.20500004 1.50699997 2.50999999
0.82599998 2.22900009 1.68900001
0.79200000 1.94799995 2.51799989
1.40600002 1.51300001 2.50900006
1.13900006 1.93499994 2.51900005
0.58800000 2.24399996 1.21099997
0.81999999 1.51300001 0.01700000
0.77399999 2.24399996 2.07699990
1.00399995 2.24399996 2.17100000
0.51400000 1.63300002 0.01900000
0.83300000 2.24300003 1.10300004
1.48199999 2.22199988 1.23500001
0.60200000 1.96500003 2.51600003
1.50000000 2.14599991 2.51999998
0.80500001 1.99000001 2.51699996
0.58600003 2.24099994 0.70899999
1.36199999 1.63900006 2.52099991
1.31400001 2.24000001 1.93799996
0.54200000 2.23900008 0.51800001
0.52100003 2.22399998 1.66700006
0.52399999 2.24799991 2.32800007
1.31799996 2.23399997 0.14000000
1.35899997 2.24099994 0.54400003
0.63999999 2.21799994 0.05800000
1.11899996 2.12299991 0.01500000
0.85399997 1.82599998 0.01700000
1.08000004 1.76900005 2.51900005
0.98799998 2.23200011 0.11400000
1.16999996 2.24399996 2.20600009
1.34800005 2.21900010 1.36899996
1.48699999 2.22199988 1.29499996
0.92299998 2.05999994 0.01700000
1.07099998 2.22000003 1.55900002
1.49000001 2.23099995 1.85800004
0.57999998 1.51999998 0.01900000
1.43799996 1.55299997 0.01400000
1.28799999 2.24499989 2.34500003
0.51300001 2.24000001 0.58600003
0.73100001 2.23900008 1.48099995
0.92299998 2.24000001 0.74500000
0.57300001 1.91400003 2.51600003
0.51899999 1.94700003 2.51500010
0.57999998 1.73800004 0.01900000
1.01400006 2.22099996 1.61300004
1.06299996 2.23900008 0.42600000
1.49300003 2.24000001 0.34500000
0.63400000 2.24600005 1.83500004
0.62900001 2.24399996 1.18799996
1.39800000 2.21399999 1.69900000
0.72100002 2.24099994 0.75599998
1.28499997 2.21499991 1.65400004
1.14100003 2.24099994 0.62000000
0.87599999 2.22499990 1.52400005
0.98600000 2.23399997 0.15099999
1.50000000 2.24099994 0.47900000
0.71100003 2.24399996 1.58899999
1.13199997 2.24399996 2.22300005
0.87199998 2.24000001 0.74000001
0.78399998 2.23799992 0.35400000
0.81099999 2.24200010 1.16299999
1.49600005 2.13599992 0.01300000
1.04499996 1.59399998 0.01600000
1.46800005 2.21099997 0.01300000
0.50599998 2.24300003 0.97600001
1.08700001 1.73800004 0.01500000
0.70999998 2.24399996 1.92700005
1.49699998 2.24099994 0.52200001
0.87300003 1.68700004 2.51900005
0.75099999 2.23900008 2.44199991
0.67299998 1.52300000 2.51799989
1.37100005 2.24099994 0.63700002
0.55199999 1.75800002 2.51699996
1.35500002 2.24099994 0.57999998
0.75599998 1.59200001 2.51900005
1.50000000 2.21900010 1.47899997
1.14699996 2.22499990 1.80700004
0.79100001 1.71300006 2.51799989
1.48500001 2.21799994 1.76100004
1.38100004 2.21399999 2.02800012
1.48199999 2.24099994 0.57900000
0.61600000 1.73500001 2.51699996
1.48599994 2.19300008 0.01400000
1.43099999 2.17700005 2.51300001
1.07299995 2.23600006 0.27100000
0.83200002 1.78900003 0.01700000
1.01800001 2.24000001 0.62800002
0.81999999 2.23699999 0.28000000
0.86299998 2.24000001 2.01699996
0.72200000 2.24200010 1.53199995
0.50999999 2.05900002 0.02000000
1.39300001 2.08100009 2.51999998
1.01400006 1.51199996 0.01600000
1.07599998 2.18300009 0.01600000
0.88400000 1.50800002 2.51900005
0.80800003 2.23600006 0.26699999
0.73000002 2.24000001 1.50800002
0.51999998 2.23699999 0.36300001
0.54500002 1.97899997 0.02000000
1.45700002 2.24200010 0.76200002
0.50599998 2.21799994 0.06400000
1.14600003 2.08599997 2.51900005
1.48500001 2.24200010 0.66799998
1.12899995 1.50000000 2.51900005
0.80900002 2.24399996 2.13700008
0.93099999 2.24000001 0.65100002
0.53799999 2.24799991 2.13700008
1.14300001 2.24499989 2.26799989
0.63200003 2.24200010 0.82200003
0.59799999 2.23799992 0.50500000
0.90600002 2.22399998 1.26100004
1.24600005 1.50199997 0.01500000
0.50300002 1.86399996 0.02000000
0.77999997 2.24399996 1.15900004
0.76499999 1.93099999 0.01700000
0.62599999 1.51300001 0.01800000
1.49899995 2.24200010 1.99800003
0.89800000 2.23799992 1.97200000
1.46800005 1.50399995 2.48900008
0.64600003 2.24499989 1.61000001
0.50000000 2.13599992 2.51200008
1.47599995 1.77800000 0.01400000
0.76700002 2.24000001 0.70999998
1.00000000 2.22199988 1.66799998
0.65899998 1.51600003 0.01800000
1.40999997 1.65799999 2.52099991
0.50999999 1.56700003 0.01900000
1.24300003 1.61399996 0.01500000
0.50400001 2.24600005 2.41499996
0.57400000 2.24399996 1.19599998
0.76899999 2.24499989 2.13599992
0.50700003 2.21799994 1.31799996
0.75999999 2.23300004 0.13500001
1.40199995 1.63000000 0.01500000
1.49899995 2.21700001 1.59599996
0.59899998 2.24600005 1.87000000
0.51599997 2.22099996 1.40300000
1.49800003 2.24300003 1.05200005
1.48399997 2.24399996 2.34999990
1.20799994 2.21600008 1.68599999
0.86299998 1.50399995 0.01700000
0.53799999 2.24099994 0.74900001
0.85399997 1.91999996 2.51799989
1.04700005 2.23000002 1.82799995
1.15400004 1.95000005 2.51900005
1.08399999 2.06599998 0.01500000
0.50999999 1.67100000 0.01900000
0.52700001 1.92100000 0.02000000
1.32700002 1.97099996 2.51999998
0.59700000 2.18799996 0.02000000
1.49699998 2.24200010 0.89899999
1.39900005 2.22099996 1.26699996
0.51599997 1.88399994 2.51600003
1.49500000 2.24399996 2.20900011
1.48599994 2.23799992 0.23899999
1.28499997 2.22900009 1.85099995
1.13399994 1.75699997 2.51900005
0.50199997 1.59899998 2.51699996
1.49500000 2.24200010 0.85100001
0.99900001 2.04099989 2.51799989
0.82099998 2.24200010 2.04999995
1.49500000 2.23699999 0.21100000
0.50400001 2.23600006 0.26600000
0.52800000 1.68900001 2.51699996
0.96600002 2.23200011 0.11600000
1.48699999 1.57799995 2.52099991
0.57499999 2.24300003 1.79999995
1.27199996 2.21499991 1.66499996
0.60500002 2.24399996 1.58399999
1.06400001 1.50199997 2.51900005
1.13399994 2.23799992 1.08700001
1.49699998 2.24399996 2.40700006
0.50400001 1.76999998 2.51699996
1.30499995 1.50199997 2.48200011
0.62900001 2.24200010 1.30700004
0.50700003 2.21900010 1.42100000
0.71100003 2.24300003 1.51199996
1.42299998 1.78699994 0.01400000
1.46300006 2.24200010 0.86000001
1.48800004 1.68900001 2.52099991
0.51300001 2.24300003 1.05499995
1.41999996 2.24200010 0.91500002
1.47099996 2.24099994 0.61199999
0.81800002 2.24200010 0.87400001
1.34800005 2.22199988 1.21700001
1.42700005 2.23600006 1.10500002
0.50900000 2.11199999 0.02100000
0.94499999 2.22399998 1.73099995
1.48399997 2.05399990 2.51999998
0.50300002 2.21900010 1.51699996
1.27300000 2.23399997 1.88100004
0.75500000 1.51699996 0.01700000
0.50700003 2.23600006 0.20999999
0.87800002 2.14199996 2.51699996
0.63599998 1.55999994 0.01800000
1.49899995 2.24399996 2.18000007
1.49600005 1.94799995 0.01400000
1.30499995 1.85300004 2.51999998
0.51200002 1.91799998 2.51600003
0.50900000 2.01399994 2.51399994
0.50999999 2.22099996 1.71099997
1.37399995 2.24200010 0.79699999
0.50300002 2.24300003 1.14199996
0.56599998 2.23900008 1.70700002
0.56999999 2.24799991 2.23900008
0.60600001 2.23699999 0.28000000
0.70800000 2.24499989 1.94799995
0.78299999 2.24300003 1.95500004
1.17799997 1.51699996 0.01500000
1.49000001 2.22600007 1.15100002
0.56099999 2.23900008 1.81099999
0.75999999 2.24300003 1.10300004
0.51499999 2.23399997 1.23500001
1.49600005 2.22399998 0.09200000
0.61299998 2.23699999 0.39800000
0.56400001 1.66600001 0.01900000
1.49500000 2.23000002 2.08999991
0.50599998 1.78600001 2.51699996
1.25199997 2.22300005 1.20599997
0.77999997 2.24099994 1.84300005
1.41400003 1.90900004 2.51999998
0.53299999 2.24000001 0.63700002
0.57900000 2.23600006 1.44099998
0.52200001 1.53299999 0.01900000
0.82300001 2.22900009 1.59300005
1.38800001 2.24300003 0.99100000
0.50999999 2.24799991 2.34200001
0.53399998 1.63499999 2.51699996
1.42499995 2.24200010 0.93099999
1.34200001 1.90999997 2.51999998
0.98100001 1.50399995 2.51900005
0.79400003 1.92999995 2.51799989
1.49100006 2.24200010 0.69499999
1.47399998 2.24300003 0.94199997
0.51999998 2.24799991 2.05699992
1.07299995 1.76199996 0.01500000
0.73299998 1.50000000 2.51900005
0.50300002 2.21900010 1.58800006
1.41700006 1.50000000 2.47799993
0.50700003 2.24799991 1.92700005
0.50400001 1.66999996 2.51699996
0.56300002 2.24399996 1.17499995
0.50999999 2.24799991 2.25099993
0.78399998 2.24300003 1.99600005
1.48199999 1.78699994 2.52099991
1.38499999 1.84000003 2.51999998
0.77600002 2.24300003 1.09300005
1.34700000 1.50600004 0.01500000
1.49600005 1.50600004 2.49499989
0.52200001 2.22600007 1.80700004
1.21000004 2.23699999 1.89499998
0.50300002 2.23900008 0.47999999
1.47899997 1.93200004 2.51999998
0.53100002 2.24099994 0.72799999
0.59299999 1.50800002 2.51799989
1.49699998 1.50699997 0.01400000
1.07799995 1.52499998 0.01600000
0.52100003 1.50500000 2.51799989
1.50000000 1.71200001 2.52099991
