1.09599996 1.31099999 0.01600000 0.30287802 0.30287802 0.30287802
0.54600000 0.55100000 2.51999998 2.38784194 2.38784194 2.38784194
1.16400003 0.50999999 0.01600000 1.56599832 1.56599832 1.56599832
0.79900002 0.71700001 0.01700000 2.37950277 2.37950277 2.37950277
1.44900000 0.58999997 0.01400000 1.37800467 1.37800467 1.37800467
1.20799994 1.03900003 0.01600000 0.05428011 0.05428011 0.05428011
0.66000003 0.64300001 2.51999998 0.20718338 0.20718338 0.20718338
1.01100004 0.61000001 2.51900005 2.06029081 2.06029081 2.06029081
0.51099998 1.19799995 0.01900000 2.36433506 2.36433506 2.36433506
0.87199998 1.25300002 2.51900005 0.59813321 0.59813321 0.59813321
1.01300001 1.02400005 2.51999998 0.73992628 0.73992628 0.73992628
0.65399998 0.59200001 2.52099991 0.04007646 0.04007646 0.04007646
0.60399997 1.12800002 2.51900005 -2.24899745 -2.24899745 -2.24899745
0.92900002 0.55299997 0.01700000 1.77781069 1.77781069 1.77781069
1.16499996 0.76999998 0.01600000 1.28709400 1.28709400 1.28709400
0.68300003 0.77999997 2.51999998 -0.72308028 -0.72308028 -0.72308028
0.68599999 1.27100003 2.51900005 2.85615277 2.85615277 2.85615277
1.35300004 0.64399999 0.01600000 -0.00318455 -0.00318455 -0.00318455
1.14100003 0.66500002 2.51900005 0.37700510 0.37700510 0.37700510
0.64399999 0.98699999 0.01800000 -0.21140419 -0.21140419 -0.21140419
1.32400000 0.67400002 0.01600000 0.56414545 0.56414545 0.56414545
0.66399997 1.07099998 2.51900005 0.99916655 0.99916655 0.99916655
1.25999999 1.27699995 0.01500000 1.10882390 1.10882390 1.10882390
0.93000001 1.23399997 0.01600000 -0.06049589 -0.06049589 -0.06049589
1.40199995 0.76599997 2.51900005 -0.07462805 -0.07462805 -0.07462805
1.05299997 0.51599997 0.01700000 0.16995904 0.16995904 0.16995904
0.71499997 1.42299998 0.01800000 -0.04478158 -0.04478158 -0.04478158
0.88599998 0.70899999 0.01700000 1.33673024 1.33673024 1.33673024
0.60799998 0.56300002 2.52099991 2.10169196 2.10169196 2.10169196
1.19700003 1.06200004 2.49000001 0.87424064 0.87424064 0.87424064
1.18799996 0.73500001 2.51900005 0.67143273 0.67143273 0.67143273
0.84100002 1.44099998 0.01700000 0.90743524 0.90743524 0.90743524
0.90600002 1.12199998 0.01600000 0.49138841 0.49138841 0.49138841
0.70800000 0.82599998 0.01700000 3.75520921 3.75520921 3.75520921
0.78200001 0.70999998 2.51999998 0.20506416 0.20506416 0.20506416
0.85799998 1.46000004 0.01700000 -0.07662008 -0.07662008 -0.07662008
0.93500000 0.97100002 2.51999998 0.07875961 0.07875961 0.07875961
0.55599999 0.81500000 2.51999998 0.02601721 0.02601721 0.02601721
1.28600001 1.02499998 0.01500000 1.52015495 1.52015495 1.52015495
0.85799998 0.99699998 2.51999998 0.87177438 0.87177438 0.87177438
1.12100005 1.17299998 0.01600000 3.53032064 3.53032064 3.53032064
1.48199999 1.08899999 2.43600011 -0.18317492 -0.18317492 -0.18317492
0.66900003 1.44799995 2.51900005 3.19922352 3.19922352 3.19922352
1.39600003 0.87099999 0.01500000 3.05715179 3.05715179 3.05715179
1.17299998 1.45200002 2.51900005 -0.22781350 -0.22781350 -0.22781350
0.58099997 1.39199996 2.51799989 0.78899491 0.78899491 0.78899491
1.37100005 1.42799997 0.01400000 2.48429465 2.48429465 2.48429465
0.55000001 0.96600002 0.01800000 1.06386721 1.06386721 1.06386721
1.43900001 1.49100006 2.45499992 2.28015256 2.28015256 2.28015256
1.29900002 1.47200000 2.44199991 0.27517915 0.27517915 0.27517915
1.32799995 0.60299999 0.01600000 1.60541999 1.60541999 1.60541999
0.88200003 0.95899999 0.01700000 1.43828917 1.43828917 1.43828917
0.66600001 0.90799999 2.51999998 0.77996892 0.77996892 0.77996892
1.40799999 1.17900002 0.01500000 0.28571007 0.28571007 0.28571007
0.54299998 0.74500000 2.51999998 1.21531379 1.21531379 1.21531379
1.46099997 1.45599997 2.43899989 0.70614123 0.70614123 0.70614123
1.46599996 1.01400006 2.43600011 1.90920043 1.90920043 1.90920043
1.05100000 1.39499998 0.01600000 0.28167865 0.28167865 0.28167865
1.31500006 0.90399998 2.43799996 -0.20168963 -0.20168963 -0.20168963
0.87900001 0.66900003 2.51999998 0.93634194 0.93634194 0.93634194
1.33000004 1.38800001 0.01500000 0.20556766 0.20556766 0.20556766
0.90600002 0.62400001 2.51999998 0.28331330 0.28331330 0.28331330
0.95599997 0.74299997 2.51999998 -0.65265405 -0.65265405 -0.65265405
1.42700005 1.42900002 0.01400000 0.29396707 0.29396707 0.29396707
1.20899999 1.25800002 0.01500000 0.21298021 0.21298021 0.21298021
0.72799999 0.65799999 2.51999998 1.39352071 1.39352071 1.39352071
1.43200004 1.04999995 2.43700004 1.83092082 1.83092082 1.83092082
0.92600000 0.79100001 2.51999998 1.24467623 1.24467623 1.24467623
0.97000003 1.47099996 2.51900005 0.42361987 0.42361987 0.42361987
1.01300001 0.66900003 2.51900005 0.75833386 0.75833386 0.75833386
1.44200003 0.73100001 2.51900005 0.20891629 0.20891629 0.20891629
0.70800000 0.58800000 0.01700000 0.99773043 0.99773043 0.99773043
1.12600005 0.72299999 2.51900005 1.07085955 1.07085955 1.07085955
0.67600000 1.25300002 2.51900005 -0.20840460 -0.20840460 -0.20840460
0.72100002 0.88999999 0.01700000 0.56425220 0.56425220 0.56425220
1.25800002 0.57700002 2.51900005 1.78749752 1.78749752 1.78749752
1.24500000 1.22899997 0.01500000 1.55415618 1.55415618 1.55415618
1.03199995 0.59299999 2.51900005 0.46051237 0.46051237 0.46051237
1.25500000 1.42600000 2.45400000 0.42146379 0.42146379 0.42146379
1.29799998 1.41100001 0.01500000 3.22243953 3.22243953 3.22243953
1.48399997 0.96100003 2.43600011 3.81083846 3.81083846 3.81083846
0.52899998 1.32099998 2.51799989 -0.00773663 -0.00773663 -0.00773663
0.68400002 0.83899999 2.51999998 0.46762031 0.46762031 0.46762031
0.94000000 1.20200002 0.01600000 0.03585580 0.03585580 0.03585580
1.03400004 0.59799999 0.01700000 0.37550098 0.37550098 0.37550098
0.59799999 1.07099998 0.01800000 1.35264218 1.35264218 1.35264218
0.69300002 1.44599998 2.51900005 0.88756812 0.88756812 0.88756812
0.75000000 1.06599998 2.51900005 -0.85188514 -0.85188514 -0.85188514
0.79100001 1.09500003 2.51900005 -0.16898845 -0.16898845 -0.16898845
0.74199998 1.39199996 0.01800000 0.10957502 0.10957502 0.10957502
1.45899999 1.07099998 2.43600011 0.58683532 0.58683532 0.58683532
0.82499999 1.24100006 0.01700000 0.08045110 0.08045110 0.08045110
0.91600001 0.67799997 2.51999998 1.16694689 1.16694689 1.16694689
1.14600003 0.55100000 2.51900005 1.39369261 1.39369261 1.39369261
0.94400001 0.52600002 0.01700000 1.53747439 1.53747439 1.53747439
1.43900001 0.59899998 2.51900005 0.23862050 0.23862050 0.23862050
1.15300000 1.49699998 0.01500000 2.59392190 2.59392190 2.59392190
1.18099999 0.62000000 0.01700000 -1.80833268 -1.80833268 -1.80833268
0.95200002 1.25500000 0.01600000 0.53713751 0.53713751 0.53713751
1.26499999 0.73100001 0.01600000 0.31746060 0.31746060 0.31746060
1.12699997 0.90100002 0.01600000 1.00637746 1.00637746 1.00637746
0.66399997 0.58600003 0.01800000 0.78644663 0.78644663 0.78644663
1.16999996 0.88200003 0.01600000 -0.24811462 -0.24811462 -0.24811462
0.99599999 0.80699998 2.51999998 0.10601449 0.10601449 0.10601449
1.28400004 0.65899998 2.51900005 0.38540635 0.38540635 0.38540635
0.71399999 0.67400002 2.51999998 2.77801681 2.77801681 2.77801681
0.82599998 0.68900001 0.01700000 0.27350011 0.27350011 0.27350011
1.30599999 1.25600004 0.01500000 1.57186556 1.57186556 1.57186556
0.99100000 0.98100001 2.51999998 2.49175882 2.49175882 2.49175882
1.47399998 0.70599997 0.01500000 2.20391583 2.20391583 2.20391583
0.52300000 0.53500003 0.01800000 1.56748354 1.56748354 1.56748354
0.98000002 1.38800001 2.51900005 0.42463058 0.42463058 0.42463058
1.12000000 1.23099995 0.01600000 -0.44935718 -0.44935718 -0.44935718
0.73199999 1.44700003 2.51900005 2.68282557 2.68282557 2.68282557
1.46800005 1.19799995 2.43700004 0.80993396 0.80993396 0.80993396
1.47200000 0.71499997 2.51900005 -0.01784231 -0.01784231 -0.01784231
0.96700001 1.47800004 0.01600000 0.56615853 0.56615853 0.56615853
0.88800001 0.74000001 0.01700000 0.27079043 0.27079043 0.27079043
0.89999998 0.87800002 0.01700000 2.48389268 2.48389268 2.48389268
0.75700003 0.91799998 2.51999998 0.70086759 0.70086759 0.70086759
1.18900001 1.06500006 0.01600000 1.07573330 1.07573330 1.07573330
1.04299998 0.66799998 2.51900005 0.73268181 0.73268181 0.73268181
1.16700006 0.98500001 0.01600000 1.13117290 1.13117290 1.13117290
1.24500000 1.40499997 2.46000004 0.75648612 0.75648612 0.75648612
0.84600002 0.78399998 0.01700000 3.68035197 3.68035197 3.68035197
0.63400000 1.08099997 2.51900005 1.18149936 1.18149936 1.18149936
0.97100002 0.98000002 2.51999998 1.10018635 1.10018635 1.10018635
1.48300004 0.54600000 0.01200000 2.53208637 2.53208637 2.53208637
1.16700006 1.22200000 2.51399994 1.89450991 1.89450991 1.89450991
1.19500005 1.30599999 0.01500000 1.30646038 1.30646038 1.30646038
1.39499998 1.29100001 2.43899989 -0.36810708 -0.36810708 -0.36810708
0.88099998 0.86900002 0.01700000 1.58101368 1.58101368 1.58101368
1.32700002 1.03100002 0.01500000 3.22296548 3.22296548 3.22296548
0.81099999 0.93800002 2.51999998 4.21536064 4.21536064 4.21536064
1.38100004 0.92500001 0.01500000 2.31183934 2.31183934 2.31183934
1.26600003 1.04200006 2.44000006 1.98394978 1.98394978 1.98394978
1.12899995 1.03199995 2.51900005 0.24761254 0.24761254 0.24761254
1.36199999 1.19000006 2.43899989 1.56077123 1.56077123 1.56077123
0.97799999 1.23000002 2.51900005 -0.05946909 -0.05946909 -0.05946909
1.45400000 0.84899998 2.43899989 0.49547952 0.49547952 0.49547952
1.03499997 1.25000000 2.51900005 0.26285827 0.26285827 0.26285827
0.92000002 0.96700001 0.01600000 2.48515773 2.48515773 2.48515773
0.93199998 1.19500005 2.51900005 -0.06537558 -0.06537558 -0.06537558
0.65700001 0.55800003 2.52099991 0.85185617 0.85185617 0.85185617
1.30400002 0.58099997 0.01600000 1.25197554 1.25197554 1.25197554
1.35099995 0.86400002 0.01600000 2.76435733 2.76435733 2.76435733
1.42400002 0.77200001 2.51900005 0.95059961 0.95059961 0.95059961
1.45400000 1.11600006 0.01500000 1.36078775 1.36078775 1.36078775
0.91000003 0.85900003 0.01700000 -0.00773151 -0.00773151 -0.00773151
0.75900000 0.83999997 0.01700000 0.20979393 0.20979393 0.20979393
0.59399998 1.09000003 2.51900005 -1.48409235 -1.48409235 -1.48409235
0.58600003 1.43599999 2.51799989 0.29005843 0.29005843 0.29005843
0.58600003 0.55800003 0.01800000 2.91072202 2.91072202 2.91072202
0.54600000 0.87000000 2.51999998 0.70377433 0.70377433 0.70377433
1.30200005 1.08399999 0.01500000 0.66676491 0.66676491 0.66676491
0.68400002 1.21300006 0.01800000 0.32686260 0.32686260 0.32686260
1.49199998 1.41100001 2.43799996 -4.28381157 -4.28381157 -4.28381157
0.55199999 1.45200002 0.01900000 0.60550421 0.60550421 0.60550421
1.17700005 0.99400002 2.51900005 -0.30964902 -0.30964902 -0.30964902
1.23899996 0.84100002 2.47099996 0.12660287 0.12660287 0.12660287
1.27499998 0.60299999 2.51900005 0.34901306 0.34901306 0.34901306
1.48399997 0.57599998 0.01300000 1.10874331 1.10874331 1.10874331
1.34399998 0.61400002 2.51900005 -0.00076344 -0.00076344 -0.00076344
0.75000000 1.37899995 0.01800000 -0.06189615 -0.06189615 -0.06189615
0.72000003 0.67100000 2.51999998 1.61753261 1.61753261 1.61753261
1.09899998 1.29799998 2.51900005 1.42550051 1.42550051 1.42550051
1.08700001 1.15100002 0.01600000 1.75417972 1.75417972 1.75417972
0.63099998 1.43700004 2.51799989 2.62954926 2.62954926 2.62954926
1.33700001 0.88499999 0.01600000 1.24456251 1.24456251 1.24456251
0.85600001 0.58200002 0.01700000 3.88456821 3.88456821 3.88456821
0.99500000 1.18799996 2.51900005 -0.07891702 -0.07891702 -0.07891702
0.65899998 0.53399998 0.01800000 1.39230204 1.39230204 1.39230204
1.25300002 1.39900005 2.45400000 1.01466441 1.01466441 1.01466441
1.35699999 0.82900000 2.47300005 3.30735946 3.30735946 3.30735946
1.29200006 0.88800001 2.43899989 0.49169168 0.49169168 0.49169168
0.95099998 1.41400003 2.51900005 0.11807155 0.11807155 0.11807155
0.85399997 1.20099998 2.51900005 1.81105888 1.81105888 1.81105888
1.00999999 1.48899996 0.01600000 -0.72344625 -0.72344625 -0.72344625
1.46500003 0.94400001 2.43700004 -0.00717967 -0.00717967 -0.00717967
0.76099998 1.33599997 0.01800000 1.24809802 1.24809802 1.24809802
0.59100002 0.94599998 2.51900005 0.51058733 0.51058733 0.51058733
1.42400002 0.79900002 0.01500000 0.09927981 0.09927981 0.09927981
0.64499998 0.97700000 0.01800000 1.83120930 1.83120930 1.83120930
1.20200002 0.68099999 0.01700000 0.84125137 0.84125137 0.84125137
1.16999996 1.39699996 0.01500000 0.24183553 0.24183553 0.24183553
0.73799998 0.69800001 2.51999998 1.30265367 1.30265367 1.30265367
0.81000000 1.25100005 0.01700000 1.77842057 1.77842057 1.77842057
1.21000004 1.44200003 2.49699998 0.77169812 0.77169812 0.77169812
1.41700006 1.08000004 0.01500000 -0.17794356 -0.17794356 -0.17794356
0.71200001 0.98500001 2.51900005 0.63954055 0.63954055 0.63954055
1.20400000 0.61699998 2.51900005 3.20587778 3.20587778 3.20587778
1.18499994 1.10500002 2.50099993 0.11015846 0.11015846 0.11015846
0.66500002 1.37800002 0.01800000 1.85193884 1.85193884 1.85193884
0.87800002 0.99500000 2.51999998 2.01987123 2.01987123 2.01987123
0.69900000 1.16700006 0.01800000 2.38780975 2.38780975 2.38780975
1.25199997 1.38499999 2.45400000 1.42919612 1.42919612 1.42919612
1.31299996 0.84399998 2.44899988 0.09255127 0.09255127 0.09255127
0.67600000 1.43200004 2.51900005 0.17434524 0.17434524 0.17434524
1.07000005 1.45599997 0.01600000 2.34093285 2.34093285 2.34093285
1.09700000 1.34399998 2.51900005 0.25828075 0.25828075 0.25828075
1.17400002 1.12300003 2.51500010 0.81764168 0.81764168 0.81764168
0.98699999 0.88499999 2.51999998 1.61178625 1.61178625 1.61178625
1.02400005 0.76400000 0.01700000 0.35091701 0.35091701 0.35091701
1.15300000 0.65700001 0.01700000 0.01725366 0.01725366 0.01725366
1.28799999 1.01499999 2.43899989 -0.03718205 -0.03718205 -0.03718205
0.98500001 0.67699999 0.01700000 0.88678336 0.88678336 0.88678336
0.78600001 0.71700001 2.51999998 0.29830828 0.29830828 0.29830828
1.12300003 0.87300003 0.01600000 3.76366711 3.76366711 3.76366711
0.79500002 1.06700003 0.01700000 0.07010797 0.07010797 0.07010797
1.36500001 0.52700001 2.51900005 0.32872739 0.32872739 0.32872739
0.54100001 1.33800006 2.51799989 0.80947334 0.80947334 0.80947334
1.02100003 1.29100001 2.51900005 1.59827185 1.59827185 1.59827185
0.60299999 0.85500002 0.01800000 -0.60610670 -0.60610670 -0.60610670
0.67100000 1.23699999 2.51900005 1.96128917 1.96128917 1.96128917
0.78200001 1.40999997 0.01700000 1.30943441 1.30943441 1.30943441
1.33500004 1.40300000 2.44099998 1.04693258 1.04693258 1.04693258
1.11099994 0.94800001 2.51900005 1.38138080 1.38138080 1.38138080
1.00800002 0.60000002 0.01700000 0.84488773 0.84488773 0.84488773
0.69400001 1.01400006 0.01800000 0.66721392 0.66721392 0.66721392
1.32700002 1.18200004 0.01500000 3.16380215 3.16380215 3.16380215
1.25699997 0.80599999 0.01600000 0.47464123 0.47464123 0.47464123
1.39199996 1.09000003 2.43799996 0.67071658 0.67071658 0.67071658
0.67600000 1.18700004 0.01800000 0.06515179 0.06515179 0.06515179
1.19900000 1.24699998 0.01500000 0.54665005 0.54665005 0.54665005
1.27300000 0.82300001 2.48300004 1.23972189 1.23972189 1.23972189
1.49100006 1.23899996 2.43700004 2.40114760 2.40114760 2.40114760
1.07500005 1.19200003 0.01600000 0.07148267 0.07148267 0.07148267
0.54100001 1.40400004 0.01900000 0.43432158 0.43432158 0.43432158
1.49699998 1.15100002 2.43600011 0.96129447 0.96129447 0.96129447
0.65600002 1.40400004 2.51900005 1.38688469 1.38688469 1.38688469
1.29600000 0.59799999 2.51900005 0.05807664 0.05807664 0.05807664
0.93699998 1.05700004 2.51900005 -0.23457389 -0.23457389 -0.23457389
0.67000002 1.48399997 2.51799989 0.22954682 0.22954682 0.22954682
1.33700001 0.72700000 2.51900005 -0.42493847 -0.42493847 -0.42493847
1.22399998 0.68400002 0.01600000 0.08094671 0.08094671 0.08094671
1.47500002 0.65200001 0.01400000 0.91115445 0.91115445 0.91115445
0.91900003 0.57999998 0.01700000 0.23394774 0.23394774 0.23394774
0.71700001 0.91799998 2.51999998 -0.55328298 -0.55328298 -0.55328298
0.85900003 1.04600000 0.01700000 0.72066689 0.72066689 0.72066689
1.09099996 1.01300001 0.01600000 1.07516503 1.07516503 1.07516503
0.50900000 1.27699995 2.51799989 2.84081817 2.84081817 2.84081817
1.11699998 0.98100001 0.01600000 0.05422557 0.05422557 0.05422557
0.85399997 0.89399999 2.51999998 0.06613950 0.06613950 0.06613950
1.21899998 1.18200004 2.47499990 2.40313077 2.40313077 2.40313077
0.82900000 1.13499999 2.51900005 1.25712240 1.25712240 1.25712240
0.65799999 0.77399999 0.01800000 2.19830179 2.19830179 2.19830179
0.91799998 0.68800002 0.01700000 1.79279363 1.79279363 1.79279363
0.93099999 1.19700003 2.51900005 -2.02479124 -2.02479124 -2.02479124
1.33200002 1.42100000 2.44099998 1.07350719 1.07350719 1.07350719
1.15400004 1.17900002 0.01600000 2.89837980 2.89837980 2.89837980
1.08299994 1.30499995 2.51900005 0.03419480 0.03419480 0.03419480
1.00399995 1.48500001 2.51900005 -1.26398289 -1.26398289 -1.26398289
0.76599997 0.85600001 0.01700000 0.02468450 0.02468450 0.02468450
1.19799995 0.99400002 2.50399995 0.12155554 0.12155554 0.12155554
0.61299998 1.01600003 0.01800000 -0.05851519 -0.05851519 -0.05851519
0.58700001 0.80400002 2.51999998 0.86433560 0.86433560 0.86433560
1.49500000 1.11300004 2.43600011 3.05279613 3.05279613 3.05279613
1.16499996 1.45700002 2.51900005 2.40128064 2.40128064 2.40128064
0.56900001 0.73000002 2.51999998 0.39076632 0.39076632 0.39076632
1.49100006 0.85000002 2.43799996 1.93694079 1.93694079 1.93694079
0.82999998 0.72600001 2.51999998 0.02018515 0.02018515 0.02018515
1.09000003 1.46300006 0.01500000 0.13710016 0.13710016 0.13710016
1.07299995 0.93800002 2.51900005 1.94676757 1.94676757 1.94676757
1.43200004 0.56699997 0.01400000 0.10220526 0.10220526 0.10220526
0.72700000 0.62300003 2.52099991 6.88982153 6.88982153 6.88982153
1.38999999 1.11899996 2.43799996 0.03196009 0.03196009 0.03196009
1.42799997 1.47700000 2.44000006 2.33410811 2.33410811 2.33410811
1.13600004 0.93900001 2.51900005 1.18504524 1.18504524 1.18504524
1.38300002 0.55599999 2.51900005 1.47985590 1.47985590 1.47985590
0.60299999 1.12399995 2.51900005 0.91947931 0.91947931 0.91947931
0.63499999 1.23699999 0.01800000 0.37585098 0.37585098 0.37585098
1.30799997 0.53100002 0.01500000 -0.03431780 -0.03431780 -0.03431780
1.20099998 1.09500003 2.48600006 0.26008394 0.26008394 0.26008394
0.50800002 0.66399997 0.01800000 0.53004766 0.53004766 0.53004766
1.09700000 1.43700004 0.01500000 2.43355012 2.43355012 2.43355012
1.26499999 0.58700001 2.51900005 0.84772366 0.84772366 0.84772366
0.90300000 0.61799997 0.01700000 0.59284168 0.59284168 0.59284168
0.71200001 0.82200003 0.01700000 4.19233465 4.19233465 4.19233465
1.25800002 1.18200004 0.01500000 0.38453633 0.38453633 0.38453633
0.79000002 0.74299997 2.51999998 -0.00646688 -0.00646688 -0.00646688
0.64700001 0.57400000 0.01800000 0.41660908 0.41660908 0.41660908
1.14499998 0.67600000 0.01700000 6.55138397 6.55138397 6.55138397
0.64899999 1.07400000 0.01800000 0.02506018 0.02506018 0.02506018
1.08200002 1.38800001 2.51900005 -0.09360462 -0.09360462 -0.09360462
0.94700003 0.96600002 2.51999998 -0.21254492 -0.21254492 -0.21254492
1.32099998 1.01300001 0.01500000 1.11483622 1.11483622 1.11483622
1.11699998 0.99800003 0.01600000 -0.07317924 -0.07317924 -0.07317924
0.82999998 1.04100001 0.01700000 0.40787131 0.40787131 0.40787131
1.22099996 1.45700002 2.48799992 0.47250944 0.47250944 0.47250944
1.45299995 0.70700002 2.51900005 0.04246731 0.04246731 0.04246731
1.13499999 1.03499997 0.01600000 0.66659677 0.66659677 0.66659677
0.92400002 1.06500006 0.01600000 0.89491647 0.89491647 0.89491647
0.87500000 1.07799995 0.01700000 1.61748600 1.61748600 1.61748600
1.07400000 0.82599998 2.51900005 0.18494204 0.18494204 0.18494204
1.05200005 0.98000002 0.01600000 -1.25261796 -1.25261796 -1.25261796
0.85299999 1.13900006 2.51900005 0.73095959 0.73095959 0.73095959
0.96399999 1.01400006 0.01600000 0.65792090 0.65792090 0.65792090
0.89300001 0.94599998 2.51999998 0.10438154 0.10438154 0.10438154
1.29700005 0.52399999 0.01500000 1.75499463 1.75499463 1.75499463
0.63499999 0.85200000 0.01800000 0.31817147 0.31817147 0.31817147
0.71899998 1.23699999 2.51900005 0.24975622 0.24975622 0.24975622
0.80699998 0.88499999 2.51999998 1.03589582 1.03589582 1.03589582
1.10300004 0.91000003 0.01600000 0.18674019 0.18674019 0.18674019
0.84700000 0.71899998 2.51999998 1.48861372 1.48861372 1.48861372
0.66700000 0.76400000 2.51999998 0.14237444 0.14237444 0.14237444
1.08599997 1.07700002 2.51900005 -2.11649489 -2.11649489 -2.11649489
1.20000005 1.48099995 2.51099992 0.99829215 0.99829215 0.99829215
0.86799997 1.47899997 2.51900005 0.85062844 0.85062844 0.85062844
1.40400004 1.16700006 2.43799996 1.37840819 1.37840819 1.37840819
1.40799999 0.93800002 0.01500000 1.39061379 1.39061379 1.39061379
0.50300002 1.23199999 0.01900000 1.96061015 1.96061015 1.96061015
0.83800000 0.55699998 0.01700000 4.18750334 4.18750334 4.18750334
0.61900002 0.81300002 2.51999998 0.38946113 0.38946113 0.38946113
1.13999999 0.77600002 0.01600000 0.06270848 0.06270848 0.06270848
1.49899995 0.57300001 2.51999998 0.98463190 0.98463190 0.98463190
1.02900004 1.09800005 0.01600000 0.49428812 0.49428812 0.49428812
1.32799995 1.42400002 2.44099998 0.57618803 0.57618803 0.57618803
0.51099998 0.97000003 2.51900005 2.57923913 2.57923913 2.57923913
0.64200002 0.81800002 0.01800000 0.34786341 0.34786341 0.34786341
1.15699995 1.05999994 2.51900005 0.69615287 0.69615287 0.69615287
1.04999995 0.75800002 0.01700000 0.23173279 0.23173279 0.23173279
1.37300003 0.66600001 0.01600000 0.03121453 0.03121453 0.03121453
1.32599998 0.82800001 0.01600000 1.52900934 1.52900934 1.52900934
0.85299999 0.90899998 0.01700000 0.22065407 0.22065407 0.22065407
1.12100005 1.37000000 2.51900005 1.07145369 1.07145369 1.07145369
1.36099994 1.06299996 2.43799996 0.27942386 0.27942386 0.27942386
1.43099999 0.66900003 2.51900005 -0.12847818 -0.12847818 -0.12847818
0.50599998 0.89200002 2.51900005 2.13067007 2.13067007 2.13067007
0.84200001 0.58300000 0.01700000 1.27827954 1.27827954 1.27827954
0.95400000 1.49399996 2.51900005 1.20406425 1.20406425 1.20406425
0.74900001 1.28100002 0.01800000 0.83140272 0.83140272 0.83140272
1.26800001 0.85299999 0.01600000 1.99006414 1.99006414 1.99006414
1.12000000 1.12100005 0.01600000 0.61004186 0.61004186 0.61004186
1.26900005 0.65700001 2.51900005 0.91386443 0.91386443 0.91386443
0.92500001 0.95300001 0.01600000 2.01419854 2.01419854 2.01419854
0.51700002 1.33299994 2.51799989 1.08307433 1.08307433 1.08307433
1.11300004 0.80400002 0.01600000 1.46393096 1.46393096 1.46393096
0.92400002 1.07700002 0.01600000 0.35416362 0.35416362 0.35416362
0.82499999 0.86900002 0.01700000 3.24102616 3.24102616 3.24102616
1.01400006 1.36899996 2.51900005 -0.02296758 -0.02296758 -0.02296758
0.85699999 0.74199998 2.51999998 0.71649534 0.71649534 0.71649534
1.09599996 1.08299994 0.01600000 -0.97073996 -0.97073996 -0.97073996
0.59899998 1.25800002 2.51900005 3.78145170 3.78145170 3.78145170
1.06099999 0.77600002 0.01700000 2.21565199 2.21565199 2.21565199
0.89499998 1.40300000 2.51900005 1.68927193 1.68927193 1.68927193
1.33099997 1.27400005 2.44000006 1.68608701 1.68608701 1.68608701
0.89300001 0.81900001 2.51999998 0.38344580 0.38344580 0.38344580
0.97100002 0.78299999 0.01700000 1.33993387 1.33993387 1.33993387
0.76999998 1.09200001 0.01700000 1.76114035 1.76114035 1.76114035
0.82800001 0.99900001 0.01700000 0.31817439 0.31817439 0.31817439
0.81800002 1.00000000 0.01700000 1.06973696 1.06973696 1.06973696
0.65899998 0.83999997 2.51999998 0.52967864 0.52967864 0.52967864
0.99500000 1.30200005 2.51900005 0.04402063 0.04402063 0.04402063
1.32299995 1.44299996 2.44099998 0.05072371 0.05072371 0.05072371
1.16199994 0.58499998 2.51900005 0.37249872 0.37249872 0.37249872
1.08500004 0.73000002 0.01700000 0.88881510 0.88881510 0.88881510
1.06500006 1.22599995 2.51900005 0.39557502 0.39557502 0.39557502
1.18700004 0.51599997 0.01600000 0.94460100 0.94460100 0.94460100
0.63499999 1.27800000 2.51900005 1.36123919 1.36123919 1.36123919
0.84600002 1.04799998 2.51900005 1.18017578 1.18017578 1.18017578
1.25100005 0.51099998 0.01500000 1.68168461 1.68168461 1.68168461
1.15100002 1.28100002 2.51900005 1.93945861 1.93945861 1.93945861
0.60900003 0.87800002 2.51999998 0.29914597 0.29914597 0.29914597
0.54799998 0.84899998 0.01800000 1.65667725 1.65667725 1.65667725
1.29299998 1.02900004 2.43899989 -0.00234570 -0.00234570 -0.00234570
0.57099998 1.39999998 2.51799989 0.18646529 0.18646529 0.18646529
1.19599998 0.53899997 2.51900005 0.02116603 0.02116603 0.02116603
0.70499998 1.22099996 0.01800000 0.19154914 0.19154914 0.19154914
0.75500000 0.78799999 0.01700000 1.35082006 1.35082006 1.35082006
1.28999996 1.06400001 0.01500000 0.51093906 0.51093906 0.51093906
0.78200001 1.02499998 0.01700000 0.85797709 0.85797709 0.85797709
0.59100002 1.48199999 2.51799989 -3.90980792 -3.90980792 -3.90980792
1.38699996 0.82999998 2.47099996 2.17384863 2.17384863 2.17384863
1.41400003 1.08099997 0.01500000 2.54856944 2.54856944 2.54856944
0.77200001 1.11399996 0.01700000 0.89984411 0.89984411 0.89984411
1.31900001 1.22800004 2.44000006 0.70624977 0.70624977 0.70624977
1.13999999 1.10699999 2.51900005 1.11116767 1.11116767 1.11116767
0.81000000 0.50199997 2.51999998 2.97086048 2.97086048 2.97086048
0.83800000 1.38800001 0.01700000 1.70638609 1.70638609 1.70638609
1.34800005 0.80599999 0.01600000 0.77400374 0.77400374 0.77400374
0.82499999 0.87199998 0.01700000 0.16302443 0.16302443 0.16302443
1.22599995 1.48699999 0.01500000 0.66231376 0.66231376 0.66231376
0.90700001 0.58899999 0.01700000 2.04389262 2.04389262 2.04389262
1.12199998 0.56699997 0.01700000 1.59005964 1.59005964 1.59005964
0.85399997 1.21899998 2.51900005 2.67889047 2.67889047 2.67889047
1.07900000 1.28199995 2.51900005 0.61018074 0.61018074 0.61018074
1.44700003 1.21700001 2.43700004 1.65546250 1.65546250 1.65546250
1.15100002 1.14999998 2.51900005 0.88280284 0.88280284 0.88280284
0.53700000 1.31500006 2.51799989 1.05155063 1.05155063 1.05155063
0.89300001 1.27300000 0.01700000 0.82131463 0.82131463 0.82131463
1.04600000 0.51099998 2.51900005 0.37710941 0.37710941 0.37710941
1.08800006 1.07900000 2.51900005 5.88332844 5.88332844 5.88332844
1.17700005 1.24600005 0.01600000 0.35865986 0.35865986 0.35865986
0.58600003 0.73199999 2.51999998 1.72140765 1.72140765 1.72140765
1.00000000 0.93800002 2.51999998 1.02504683 1.02504683 1.02504683
0.57300001 0.85600001 2.51999998 0.60097998 0.60097998 0.60097998
0.59200001 0.63599998 2.51999998 1.63685429 1.63685429 1.63685429
0.67299998 1.34899998 0.01800000 1.82849061 1.82849061 1.82849061
1.37100005 1.12300003 2.43799996 0.94882727 0.94882727 0.94882727
0.83200002 0.82999998 0.01700000 2.54914618 2.54914618 2.54914618
1.17299998 1.32500005 2.51900005 1.19919825 1.19919825 1.19919825
0.69700003 0.91399997 0.01700000 0.87601995 0.87601995 0.87601995
1.34800005 1.19799995 2.43899989 1.39121437 1.39121437 1.39121437
1.25100005 0.93099999 2.44600010 0.73982477 0.73982477 0.73982477
0.68500000 1.24600005 0.01800000 -0.56863725 -0.56863725 -0.56863725
0.56999999 0.85500002 0.01800000 0.78077275 0.78077275 0.78077275
1.10500002 0.73299998 2.51900005 1.23208165 1.23208165 1.23208165
0.88999999 0.94199997 0.01600000 -0.10819495 -0.10819495 -0.10819495
1.26400006 0.82400000 0.01600000 1.10685611 1.10685611 1.10685611
0.54299998 0.53200001 0.01800000 0.63692003 0.63692003 0.63692003
1.31099999 1.26900005 2.44000006 0.76493537 0.76493537 0.76493537
1.45500004 1.29299998 2.43799996 1.57857442 1.57857442 1.57857442
0.62800002 1.48000002 0.01800000 1.06987607 1.06987607 1.06987607
1.47200000 1.37600005 2.43799996 2.31761694 2.31761694 2.31761694
0.90899998 1.20599997 0.01600000 0.06917010 0.06917010 0.06917010
1.44299996 1.02900004 2.43600011 0.46758819 0.46758819 0.46758819
1.00399995 0.78799999 0.01700000 0.31080881 0.31080881 0.31080881
0.66100001 1.23500001 0.01800000 0.91967613 0.91967613 0.91967613
0.70599997 0.91600001 0.01700000 0.04762012 0.04762012 0.04762012
0.97500002 1.22099996 0.01600000 1.43929911 1.43929911 1.43929911
1.22800004 1.21500003 0.01500000 -0.29216293 -0.29216293 -0.29216293
1.44000006 0.70700002 2.51900005 -0.04925795 -0.04925795 -0.04925795
1.07099998 0.91700000 2.51900005 1.86251080 1.86251080 1.86251080
1.45000005 0.84100002 2.45300007 0.61053902 0.61053902 0.61053902
1.39400005 1.45200002 2.44000006 -0.26018980 -0.26018980 -0.26018980
1.26800001 0.64600003 0.01600000 0.58650637 0.58650637 0.58650637
1.17100000 0.65200001 0.01700000 0.16149203 0.16149203 0.16149203
1.09099996 1.43900001 2.51900005 0.08440810 0.08440810 0.08440810
0.77499998 1.35099995 0.01700000 0.01066961 0.01066961 0.01066961
0.59100002 0.91700000 2.51900005 -0.43223920 -0.43223920 -0.43223920
0.82700002 0.66900003 0.01700000 1.16929615 1.16929615 1.16929615
1.07700002 0.50999999 0.01600000 1.22415328 1.22415328 1.22415328
1.13000000 0.67699999 0.01700000 3.55721450 3.55721450 3.55721450
1.39400005 0.63300002 0.01500000 2.45351195 2.45351195 2.45351195
1.42499995 0.73000002 0.01500000 0.91774523 0.91774523 0.91774523
0.56599998 0.94800001 2.51900005 1.07329500 1.07329500 1.07329500
0.94999999 0.51099998 2.51999998 2.04184604 2.04184604 2.04184604
0.74299997 0.63999999 0.01700000 -0.31316006 -0.31316006 -0.31316006
0.88400000 0.64499998 0.01700000 0.64698440 0.64698440 0.64698440
0.62900001 1.48599994 2.51799989 1.58067644 1.58067644 1.58067644
0.53200001 0.55599999 0.01800000 0.82117492 0.82117492 0.82117492
0.82700002 0.94800001 2.51999998 1.58868432 1.58868432 1.58868432
0.74000001 1.41600001 2.51900005 2.49604225 2.49604225 2.49604225
1.20299995 1.44700003 2.50500011 1.12089145 1.12089145 1.12089145
0.66600001 0.69599998 0.01800000 5.02148151 5.02148151 5.02148151
0.73900002 1.45700002 0.01800000 0.67639577 0.67639577 0.67639577
0.99900001 0.99800003 0.01600000 4.96090746 4.96090746 4.96090746
1.12699997 0.72700000 0.01700000 0.73067147 0.73067147 0.73067147
0.74299997 1.45599997 2.51900005 2.73785782 2.73785782 2.73785782
1.16199994 1.05799997 2.51900005 3.66829062 3.66829062 3.66829062
1.16100001 1.28400004 0.01600000 0.48634878 0.48634878 0.48634878
1.15199995 0.92500001 0.01600000 0.84868425 0.84868425 0.84868425
1.04700005 0.56300002 2.51900005 0.07813342 0.07813342 0.07813342
0.68699998 0.95400000 2.51900005 0.11744724 0.11744724 0.11744724
0.83800000 1.31200004 0.01700000 1.79803240 1.79803240 1.79803240
0.81599998 0.89800000 0.01700000 1.01729846 1.01729846 1.01729846
1.39600003 1.19400001 2.43799996 1.32345915 1.32345915 1.32345915
1.20000005 1.45899999 0.01500000 0.21457568 0.21457568 0.21457568
0.91000003 1.06799996 2.51900005 0.51380044 0.51380044 0.51380044
0.55100000 1.41600001 2.51799989 0.13171338 0.13171338 0.13171338
0.79699999 0.68099999 2.51999998 0.31496048 0.31496048 0.31496048
1.23000002 0.54200000 2.51900005 0.92053223 0.92053223 0.92053223
1.15400004 1.14699996 2.51900005 1.15895879 1.15895879 1.15895879
1.39499998 1.22000003 2.43799996 1.86681974 1.86681974 1.86681974
0.56000000 1.35500002 2.51799989 0.06174936 0.06174936 0.06174936
1.06299996 1.38199997 0.01600000 1.62703741 1.62703741 1.62703741
0.65899998 1.41900003 2.51900005 0.52724266 0.52724266 0.52724266
0.60600001 0.89899999 0.01800000 0.12515672 0.12515672 0.12515672
0.55699998 0.79299998 2.51999998 0.76471114 0.76471114 0.76471114
0.89399999 0.64300001 2.51999998 -0.07723023 -0.07723023 -0.07723023
1.12000000 1.23800004 0.01600000 1.35024118 1.35024118 1.35024118
1.24000001 1.12100005 0.01600000 0.12110338 0.12110338 0.12110338
0.88400000 1.02400005 2.51900005 0.27183366 0.27183366 0.27183366
0.59399998 1.36300004 0.01900000 0.54101050 0.54101050 0.54101050
1.37699997 0.77399999 2.51900005 1.21034491 1.21034491 1.21034491
0.69800001 0.83899999 2.51999998 1.64561725 1.64561725 1.64561725
1.47800004 0.87400001 2.43700004 -0.29017210 -0.29017210 -0.29017210
0.57099998 1.09800005 2.51900005 0.40094316 0.40094316 0.40094316
0.80199999 1.36099994 0.01700000 2.26007009 2.26007009 2.26007009
0.97000003 0.57700002 2.51999998 -1.93610668 -1.93610668 -1.93610668
1.15600002 1.20400000 2.51900005 -0.15648316 -0.15648316 -0.15648316
0.70899999 0.51800001 0.01700000 -0.02691538 -0.02691538 -0.02691538
0.67000002 1.00699997 2.51900005 1.38077962 1.38077962 1.38077962
1.18900001 1.26400006 2.49900007 1.61213493 1.61213493 1.61213493
0.51599997 0.89499998 0.01900000 1.57688987 1.57688987 1.57688987
0.96100003 1.32000005 0.01600000 0.28216973 0.28216973 0.28216973
0.77899998 1.19700003 2.51900005 2.34870934 2.34870934 2.34870934
1.12100005 0.52700001 0.01700000 0.08531470 0.08531470 0.08531470
1.15900004 0.70999998 2.51900005 0.44464973 0.44464973 0.44464973
0.54299998 1.40999997 2.51799989 1.34673572 1.34673572 1.34673572
1.09399998 1.21399999 0.01600000 0.64689356 0.64689356 0.64689356
1.13199997 1.10800004 2.51900005 4.29022408 4.29022408 4.29022408
0.94499999 0.53399998 0.01700000 0.59796923 0.59796923 0.59796923
1.37500000 1.24000001 2.43899989 0.00341495 0.00341495 0.00341495
0.97600001 1.37600005 0.01600000 1.56416273 1.56416273 1.56416273
1.19000006 1.00899994 2.51500010 0.47669756 0.47669756 0.47669756
1.07599998 0.81000000 0.01600000 2.22518849 2.22518849 2.22518849
0.58800000 0.91500002 0.01800000 -0.10735626 -0.10735626 -0.10735626
0.70200002 1.09500003 0.01800000 0.18553945 0.18553945 0.18553945
1.27800000 0.99199998 0.01600000 0.31069019 0.31069019 0.31069019
1.45700002 1.21800005 2.43700004 0.39561462 0.39561462 0.39561462
0.98799998 1.35899997 2.51900005 -0.51052231 -0.51052231 -0.51052231
0.56500000 1.29400003 2.51900005 -0.26758671 -0.26758671 -0.26758671
1.28900003 0.74800003 0.01600000 0.63910162 0.63910162 0.63910162
1.45299995 1.40300000 0.01400000 0.10180212 0.10180212 0.10180212
1.46899998 0.70700002 0.01500000 -0.24984899 -0.24984899 -0.24984899
0.57700002 0.52499998 2.52099991 0.43744558 0.43744558 0.43744558
1.15799999 0.57700002 0.01700000 2.19775295 2.19775295 2.19775295
1.00999999 0.60399997 2.51900005 -0.51234418 -0.51234418 -0.51234418
0.70200002 1.43499994 2.51900005 0.64096302 0.64096302 0.64096302
0.98799998 0.51400000 2.51900005 -0.18173444 -0.18173444 -0.18173444
0.75099999 0.64200002 0.01700000 1.88856101 1.88856101 1.88856101
0.52100003 1.28100002 2.51799989 0.19967888 0.19967888 0.19967888
1.28299999 1.39800000 0.01500000 -2.44318414 -2.44318414 -2.44318414
1.21700001 0.89700001 2.49399996 -0.03969662 -0.03969662 -0.03969662
1.49699998 0.89399999 2.43700004 1.79032505 1.79032505 1.79032505
1.29400003 1.12500000 0.01500000 -1.07635641 -1.07635641 -1.07635641
0.82300001 0.97399998 0.01700000 1.26775825 1.26775825 1.26775825
1.18499994 0.65499997 0.01700000 0.14163287 0.14163287 0.14163287
1.46700001 1.18400002 0.01400000 2.73851204 2.73851204 2.73851204
0.57200003 1.27600002 0.01900000 4.79814863 4.79814863 4.79814863
1.27499998 0.66000003 2.51900005 -0.34051272 -0.34051272 -0.34051272
1.03600001 1.04100001 0.01600000 0.05145434 0.05145434 0.05145434
1.41100001 1.34599996 0.01400000 0.08296634 0.08296634 0.08296634
0.63599998 0.92000002 0.01800000 -1.00728953 -1.00728953 -1.00728953
0.74800003 0.94999999 0.01700000 1.37316477 1.37316477 1.37316477
1.09300005 0.88900000 0.01600000 0.49164757 0.49164757 0.49164757
0.70099998 0.61600000 2.52099991 2.58930039 2.58930039 2.58930039
0.64399999 1.35800004 2.51900005 0.24680743 0.24680743 0.24680743
0.64600003 1.02699995 0.01800000 2.88274193 2.88274193 2.88274193
1.04499996 0.93800002 2.51900005 2.83574557 2.83574557 2.83574557
1.00500000 0.98799998 2.51999998 0.24726182 0.24726182 0.24726182
0.53799999 0.97399998 2.51900005 0.91130447 0.91130447 0.91130447
1.24699998 0.57200003 2.51900005 1.98353720 1.98353720 1.98353720
1.00399995 1.27300000 2.51900005 3.10026503 3.10026503 3.10026503
1.23399997 1.47700000 2.47799993 1.64138472 1.64138472 1.64138472
1.07799995 1.27699995 0.01600000 0.34649462 0.34649462 0.34649462
0.71100003 0.54400003 2.52099991 1.81489372 1.81489372 1.81489372
0.88000000 1.04200006 2.51900005 0.32552925 0.32552925 0.32552925
0.76599997 0.92199999 0.01700000 -0.09538725 -0.09538725 -0.09538725
1.03799999 1.40499997 0.01600000 1.76291263 1.76291263 1.76291263
0.53299999 0.52700001 0.01800000 -0.07579163 -0.07579163 -0.07579163
1.04600000 1.00500000 2.51900005 1.50445747 1.50445747 1.50445747
1.43900001 0.94000000 0.01500000 0.17234839 0.17234839 0.17234839
1.42499995 0.61600000 2.51900005 0.08940005 0.08940005 0.08940005
1.35699999 0.50099999 0.01400000 3.24828911 3.24828911 3.24828911
0.58399999 0.57700002 2.51999998 3.43428493 3.43428493 3.43428493
0.94999999 0.86900002 0.01600000 1.32226491 1.32226491 1.32226491
1.35300004 0.63400000 0.01600000 0.53611249 0.53611249 0.53611249
1.37600005 1.09099996 0.01500000 -0.16020301 -0.16020301 -0.16020301
1.23699999 0.64499998 0.01600000 1.86176169 1.86176169 1.86176169
1.20099998 1.01499999 0.01600000 1.76955116 1.76955116 1.76955116
1.35599995 1.43200004 0.01400000 2.44769382 2.44769382 2.44769382
0.54900002 1.02199996 0.01900000 3.52298832 3.52298832 3.52298832
1.24300003 0.83800000 0.01600000 5.00385904 5.00385904 5.00385904
0.60200000 0.84799999 2.51999998 0.35592067 0.35592067 0.35592067
1.21700001 0.94999999 2.48200011 0.98790169 0.98790169 0.98790169
1.08500004 1.06900001 2.51900005 0.57256633 0.57256633 0.57256633
1.21200001 1.48699999 2.50000000 0.44000655 0.44000655 0.44000655
0.54699999 1.22000003 0.01900000 1.15763223 1.15763223 1.15763223
1.11000001 1.37399995 0.01600000 0.99055862 0.99055862 0.99055862
1.39100003 0.50500000 0.01300000 0.48456976 0.48456976 0.48456976
0.70099998 0.77600002 0.01700000 1.62634361 1.62634361 1.62634361
1.46800005 0.55500001 2.51999998 0.04490557 0.04490557 0.04490557
0.61299998 1.04100001 0.01800000 0.93388653 0.93388653 0.93388653
1.02800000 0.65100002 0.01700000 0.90701443 0.90701443 0.90701443
1.39400005 1.06400001 0.01500000 0.48106578 0.48106578 0.48106578
1.42100000 1.45599997 0.01400000 0.69417125 0.69417125 0.69417125
1.12300003 1.16299999 2.51900005 0.81626445 0.81626445 0.81626445
1.17499995 0.79600000 0.01600000 1.76248872 1.76248872 1.76248872
1.33399999 1.04700005 2.43899989 0.49219701 0.49219701 0.49219701
0.76800001 1.44200003 2.51900005 3.06812263 3.06812263 3.06812263
1.14400005 1.33800006 2.51900005 0.33972552 0.33972552 0.33972552
0.81900001 0.58300000 0.01700000 1.11620903 1.11620903 1.11620903
1.04200006 1.41799998 2.51900005 0.21798222 0.21798222 0.21798222
0.81099999 0.68500000 0.01700000 4.38069105 4.38069105 4.38069105
1.38399994 0.90399998 0.01500000 0.68282759 0.68282759 0.68282759
1.26800001 1.21500003 0.01500000 4.52223730 4.52223730 4.52223730
1.43599999 1.09200001 2.43700004 0.24608611 0.24608611 0.24608611
1.48899996 0.57700002 2.51999998 -0.44243166 -0.44243166 -0.44243166
1.35099995 1.43299997 0.01400000 -0.84922588 -0.84922588 -0.84922588
1.36699998 1.46200001 2.44000006 0.72504139 0.72504139 0.72504139
0.62500000 0.63200003 0.01800000 0.53628069 0.53628069 0.53628069
0.97600001 0.91799998 2.51999998 1.91912472 1.91912472 1.91912472
1.38100004 0.63200003 2.51900005 0.29162639 0.29162639 0.29162639
0.89700001 1.43200004 0.01700000 -0.24267498 -0.24267498 -0.24267498
1.03499997 0.81500000 2.51900005 0.69969720 0.69969720 0.69969720
1.01999998 1.37899995 2.51900005 1.62308061 1.62308061 1.62308061
1.38800001 0.95700002 0.01500000 -0.46768272 -0.46768272 -0.46768272
0.50700003 0.77200001 0.01800000 4.79114151 4.79114151 4.79114151
0.54200000 1.15799999 2.51900005 1.31089330 1.31089330 1.31089330
1.49500000 0.60000002 0.01300000 -0.31377035 -0.31377035 -0.31377035
0.92799997 1.33500004 0.01600000 -0.20022832 -0.20022832 -0.20022832
0.71700001 0.92400002 2.51999998 0.18984497 0.18984497 0.18984497
1.01699996 0.90499997 2.51999998 2.77623987 2.77623987 2.77623987
0.83800000 0.51499999 0.01700000 1.35127354 1.35127354 1.35127354
1.09599996 1.07799995 0.01600000 -0.64202267 -0.64202267 -0.64202267
0.55800003 0.75599998 2.51999998 0.77456599 0.77456599 0.77456599
1.09899998 0.62099999 0.01700000 0.28359133 0.28359133 0.28359133
1.12699997 0.52999997 0.01700000 0.24304986 0.24304986 0.24304986
0.82599998 0.69499999 0.01700000 1.59272635 1.59272635 1.59272635
1.17999995 0.70999998 2.51900005 0.97247219 0.97247219 0.97247219
1.41100001 1.12699997 0.01500000 0.28481033 0.28481033 0.28481033
0.90799999 0.96399999 2.51999998 0.10221356 0.10221356 0.10221356
1.40600002 0.54100001 2.51900005 0.18183866 0.18183866 0.18183866
1.13800001 0.76400000 0.01600000 1.50839674 1.50839674 1.50839674
0.67900002 1.28600001 2.51900005 1.76047027 1.76047027 1.76047027
1.00100005 0.77700001 2.51999998 4.91159487 4.91159487 4.91159487
1.44900000 0.82400000 2.48000002 2.44963646 2.44963646 2.44963646
0.77499998 1.34399998 2.51900005 0.18299031 0.18299031 0.18299031
1.06500006 0.50900000 0.01700000 1.01494873 1.01494873 1.01494873
0.96600002 0.87000000 0.01600000 0.18288079 0.18288079 0.18288079
0.51800001 1.39100003 0.01900000 -0.97542423 -0.97542423 -0.97542423
0.51300001 0.50599998 0.01800000 4.61606741 4.61606741 4.61606741
1.02400005 1.25399995 0.01600000 -0.74532783 -0.74532783 -0.74532783
1.01800001 0.97799999 2.51999998 0.51087987 0.51087987 0.51087987
0.79299998 1.48899996 2.51900005 2.57156467 2.57156467 2.57156467
1.35399997 1.29400003 0.01500000 1.09127033 1.09127033 1.09127033
0.96600002 0.89300001 2.51999998 2.56190920 2.56190920 2.56190920
1.17900002 0.65499997 0.01700000 0.43242472 0.43242472 0.43242472
1.33599997 0.98500001 0.01500000 1.97554839 1.97554839 1.97554839
1.27199996 1.17299998 0.01500000 0.23933709 0.23933709 0.23933709
1.32799995 0.55800003 0.01500000 0.57247996 0.57247996 0.57247996
0.73199999 0.79100001 0.01700000 1.53671205 1.53671205 1.53671205
0.85299999 0.88000000 2.51999998 1.07762265 1.07762265 1.07762265
1.44299996 1.14100003 2.43700004 3.35819483 3.35819483 3.35819483
0.91200000 0.73799998 2.51999998 1.81000340 1.81000340 1.81000340
0.64600003 1.28100002 0.01800000 2.94083548 2.94083548 2.94083548
0.70400000 0.75199997 2.51999998 0.43880054 0.43880054 0.43880054
0.64800000 0.64499998 2.51999998 0.48768517 0.48768517 0.48768517
1.15400004 0.85200000 2.51900005 1.76472807 1.76472807 1.76472807
1.05599999 1.38900006 2.51900005 0.35574153 0.35574153 0.35574153
1.30900002 1.12100005 0.01500000 -0.16327232 -0.16327232 -0.16327232
1.35800004 0.67799997 0.01600000 0.34750929 0.34750929 0.34750929
0.54900002 0.95400000 2.51900005 0.81723571 0.81723571 0.81723571
0.95400000 0.53799999 2.51999998 0.52096272 0.52096272 0.52096272
1.27999997 0.80800003 2.50799990 1.54280293 1.54280293 1.54280293
0.59399998 1.19099998 0.01800000 0.36897540 0.36897540 0.36897540
1.41199994 1.00999999 2.43700004 0.08014046 0.08014046 0.08014046
1.44299996 0.70999998 0.01500000 3.94243240 3.94243240 3.94243240
0.99100000 1.35899997 2.51900005 -0.07536584 -0.07536584 -0.07536584
0.94400001 1.28999996 0.01600000 0.09473702 0.09473702 0.09473702
0.94099998 1.00699997 2.51999998 0.77559286 0.77559286 0.77559286
1.41400003 0.76800001 0.01500000 0.40097600 0.40097600 0.40097600
0.59100002 1.44400001 0.01900000 0.34669024 0.34669024 0.34669024
1.22200000 0.68199998 2.51900005 1.67548525 1.67548525 1.67548525
1.17499995 0.81400001 2.51900005 3.61246204 3.61246204 3.61246204
1.17900002 0.89099997 2.51900005 0.27576628 0.27576628 0.27576628
0.57700002 0.90899998 0.01800000 -0.08016200 -0.08016200 -0.08016200
1.41400003 1.09200001 0.01500000 2.86428046 2.86428046 2.86428046
0.57499999 0.79000002 0.01800000 1.99349821 1.99349821 1.99349821
0.55599999 1.43599999 0.01900000 1.32049036 1.32049036 1.32049036
0.66900003 1.47300005 0.01800000 0.42824364 0.42824364 0.42824364
1.02499998 0.65899998 0.01700000 1.39115298 1.39115298 1.39115298
0.59600002 1.08500004 2.51900005 4.06990910 4.06990910 4.06990910
1.28199995 0.93900001 0.01600000 3.09673023 3.09673023 3.09673023
1.30900002 1.39699996 0.01500000 0.55021673 0.55021673 0.55021673
1.09200001 1.39600003 0.01600000 0.54585183 0.54585183 0.54585183
1.39600003 1.17499995 0.01500000 0.29230267 0.29230267 0.29230267
0.81400001 0.88900000 2.51999998 5.41608286 5.41608286 5.41608286
1.32500005 0.84799999 2.44300008 0.21987228 0.21987228 0.21987228
1.45200002 1.35800004 0.01400000 0.19516131 0.19516131 0.19516131
0.77200001 1.15400004 0.01700000 0.39118528 0.39118528 0.39118528
1.19500005 1.22000003 0.01500000 0.32110521 0.32110521 0.32110521
1.42299998 1.13600004 2.43700004 -0.22859572 -0.22859572 -0.22859572
0.97100002 1.15400004 0.01600000 1.03303242 1.03303242 1.03303242
0.53899997 0.58999997 2.51999998 1.14082599 1.14082599 1.14082599
0.99800003 1.32799995 2.51900005 1.68345213 1.68345213 1.68345213
1.46700001 1.38800001 2.43799996 0.96732622 0.96732622 0.96732622
1.22700000 0.60399997 2.51900005 0.37572899 0.37572899 0.37572899
1.37399995 0.60399997 0.01500000 1.49190056 1.49190056 1.49190056
0.95899999 0.74599999 2.51999998 1.79316187 1.79316187 1.79316187
0.64999998 0.50599998 2.52099991 1.30365288 1.30365288 1.30365288
1.39400005 1.20700002 2.43799996 0.71428072 0.71428072 0.71428072
1.00300002 0.92500001 0.01600000 0.71943885 0.71943885 0.71943885
0.55900002 0.90499997 0.01800000 1.02960300 1.02960300 1.02960300
1.25500000 1.35800004 0.01500000 -0.06871365 -0.06871365 -0.06871365
1.17100000 0.81000000 0.01600000 2.45747280 2.45747280 2.45747280
0.70899999 0.62199998 0.01700000 0.13113421 0.13113421 0.13113421
1.09000003 1.33200002 2.51900005 0.00723251 0.00723251 0.00723251
1.32200003 1.40100002 0.01500000 0.72778040 0.72778040 0.72778040
1.04600000 0.61199999 2.51900005 -0.00313737 -0.00313737 -0.00313737
0.75500000 1.32500005 2.51900005 2.16929221 2.16929221 2.16929221
1.20799994 1.15100002 2.48200011 -0.67589021 -0.67589021 -0.67589021
0.81999999 0.87699997 0.01700000 1.99899530 1.99899530 1.99899530
0.77999997 0.54000002 2.51999998 3.98739457 3.98739457 3.98739457
1.12000000 0.88400000 0.01600000 1.28239739 1.28239739 1.28239739
1.17200005 1.16199994 2.50999999 0.00274963 0.00274963 0.00274963
0.81500000 0.83499998 0.01700000 1.74054444 1.74054444 1.74054444
1.11500001 1.12899995 2.51900005 0.15669991 0.15669991 0.15669991
1.34800005 1.10699999 2.43899989 0.45825943 0.45825943 0.45825943
1.24800003 0.79000002 0.01600000 0.07775581 0.07775581 0.07775581
1.30100000 0.63300002 2.51900005 1.06543100 1.06543100 1.06543100
0.58499998 1.04799998 2.51900005 0.04538361 0.04538361 0.04538361
1.10599995 1.12199998 0.01600000 0.36551180 0.36551180 0.36551180
0.55599999 1.32299995 2.51799989 0.87855536 0.87855536 0.87855536
0.66100001 1.27999997 2.51900005 0.97595477 0.97595477 0.97595477
0.55400002 0.72899997 0.01800000 -0.88223577 -0.88223577 -0.88223577
0.50099999 0.96600002 0.01900000 3.04097462 3.04097462 3.04097462
0.63800001 1.37300003 2.51900005 0.58372992 0.58372992 0.58372992
0.81400001 1.14999998 0.01700000 0.48223236 0.48223236 0.48223236
0.90600002 0.63800001 0.01700000 2.07308793 2.07308793 2.07308793
0.98100001 1.32000005 2.51900005 0.94202447 0.94202447 0.94202447
0.99199998 0.85900003 0.01600000 0.69104505 0.69104505 0.69104505
0.79400003 0.64999998 2.51999998 -0.02509086 -0.02509086 -0.02509086
1.38699996 0.71899998 0.01600000 -0.57123852 -0.57123852 -0.57123852
1.04900002 0.71799999 2.51900005 0.62287205 0.62287205 0.62287205
0.70200002 1.09800005 0.01800000 0.61450040 0.61450040 0.61450040
0.57200003 1.18299997 0.01900000 0.54760331 0.54760331 0.54760331
1.49699998 1.43299997 0.01400000 4.37425280 4.37425280 4.37425280
1.13800001 1.25399995 2.51900005 2.11121321 2.11121321 2.11121321
1.36500001 0.84899998 2.44099998 1.11760783 1.11760783 1.11760783
1.39100003 0.58300000 2.51900005 1.26765442 1.26765442 1.26765442
0.83300000 1.43700004 2.51900005 -0.08028895 -0.08028895 -0.08028895
0.89399999 1.12300003 2.51900005 0.15497857 0.15497857 0.15497857
1.00399995 1.15600002 2.51900005 0.60305601 0.60305601 0.60305601
1.09000003 0.98100001 0.01600000 0.34406361 0.34406361 0.34406361
1.13999999 1.17700005 2.51900005 1.26114595 1.26114595 1.26114595
1.02100003 1.09200001 0.01600000 0.76992524 0.76992524 0.76992524
0.71399999 1.21899998 2.51900005 1.17340147 1.17340147 1.17340147
0.68900001 1.09000003 2.51900005 0.46737894 0.46737894 0.46737894
0.50500000 0.69300002 2.51999998 0.57106763 0.57106763 0.57106763
