0.65444744 0.34335712 0.42243707
-0.64293373 -0.56613684 -0.45821795
-0.64878803 0.57924122 0.22246248
0.64593834 -0.56613684 -0.46704039
-0.04886676 -0.53885955 0.50193834
0.16610643 0.53243798 -0.49601650
-0.57872385 0.21474609 -0.49601650
-0.64969599 -0.16103914 0.17801778
0.65444744 -0.48250210 0.26635861
0.01591146 -0.20702149 -0.49601650
-0.05286725 0.22129112 0.50193834
0.65444744 0.06966753 -0.21271349
0.21444930 0.57924122 0.08832224
-0.18068069 -0.56613684 -0.06009362
-0.29815978 0.57924122 -0.20194794
0.34485823 -0.13242143 0.50193834
-0.57264531 -0.56613684 0.49633637
0.64208013 0.57924122 -0.18387654
-0.54951853 0.20062995 0.50193834
0.34753308 -0.56613684 -0.10027584
-0.19394894 0.57924122 0.27744550
-0.64969599 -0.16192208 -0.26071897
-0.27256030 -0.15779966 0.50193834
0.33118957 0.13708277 -0.49601650
-0.59554392 -0.56613684 0.04341385
-0.15398505 0.25179285 -0.49601650
-0.64969599 0.26605517 -0.06368557
0.27885139 0.51101500 0.50193834
0.22330581 -0.56613684 -0.49221542
0.65444744 -0.04882323 0.24467130
-0.17723300 -0.56613684 -0.48720703
0.53443265 -0.18619414 -0.49601650
0.36098355 -0.52090132 0.50193834
-0.64021683 0.57924122 -0.42491919
0.65444744 -0.35414034 -0.14916731
0.65444744 0.36817575 -0.49055862
-0.36258191 -0.16178493 -0.49601650
0.65444744 0.33355859 0.06760271
0.16565894 -0.56613684 0.22043630
-0.45460767 0.56532830 0.50193834
-0.63564593 -0.20678023 0.50193834
-0.32586950 -0.56613684 0.28473732
0.35073555 0.19663666 0.50193834
0.52902484 0.57924122 0.23125991
0.65444744 -0.23749118 0.49239415
-0.14010917 0.56531227 -0.49601650
0.33633408 0.57924122 -0.21531229
0.02744163 -0.10292378 0.50193834
-0.64969599 0.56534934 -0.11670546
-0.41561481 -0.56613684 -0.25177738
0.00901839 0.57924122 -0.13042119
0.05122004 -0.56613684 -0.23738396
-0.64969599 0.18532453 0.21309844
0.62858063 0.06773555 0.50193834
0.00707105 0.57924122 0.48503023
0.47262031 0.57924122 -0.49449486
-0.41033515 -0.43465975 -0.49601650
0.59711093 -0.56613684 0.00383308
0.58866185 0.07353337 -0.49601650
-0.36558113 0.42633417 -0.49601650
-0.64969599 -0.45275119 -0.18901207
-0.22604237 0.43497741 0.50193834
-0.63448769 -0.27696651 -0.49601650
0.15285121 -0.36285371 0.50193834
-0.43437493 0.57924122 0.02775825
-0.64969599 -0.40231705 0.27312586
0.65444744 -0.09845198 -0.00976632
0.26878661 -0.15381840 -0.49601650
-0.68381160 0.01290162 -0.02683163
-0.29914683 -0.43325526 0.50193834
0.04395054 0.09312209 -0.49601650
-0.64969599 0.41185361 0.41158342
0.65444744 0.31611088 -0.18088034
-0.63879526 -0.03026902 -0.49601650
-0.32108438 0.08308703 0.50193834
0.61797625 0.57160008 0.50193834
-0.09725859 -0.56613684 0.20168719
-0.70779634 -0.25383773 -0.04383117
0.59821111 -0.56613684 0.49791008
-0.16065121 0.57924122 0.04121119
-0.64969599 -0.00636177 0.37972724
0.40786082 -0.56613684 0.27598691
-0.37152448 0.07233749 -0.49601650
0.42831478 -0.39325935 -0.49601650
0.54000163 -0.56613684 -0.25989112
-0.09176019 -0.31214929 0.50193834
-0.64969599 0.07603855 -0.29361030
-0.15009488 -0.02665424 -0.49601650
0.33267915 0.36470804 -0.49601650
0.65444744 -0.14749360 -0.27064666
0.65444744 0.11066842 0.07931798
-0.64969599 0.34313187 -0.32962492
-0.16645643 -0.33211970 -0.49601650
0.65444744 -0.30343696 0.06980897
0.19811478 0.03936610 0.50193834
0.08559763 -0.56613684 0.01828188
0.10337511 0.32448685 -0.49601650
0.09441210 0.37899235 0.50193834
-0.70072871 0.42125171 0.07622286
-0.43688565 0.57924122 0.28930122
0.48144281 0.57924122 0.02390942
0.31656587 0.57924122 0.30458963
0.04730114 -0.45159492 -0.49601650
0.65444744 -0.38291523 -0.36704311
0.07003773 0.57924122 0.28645214
-0.16090748 -0.56613684 -0.28020689
0.65444744 0.54915690 -0.39660081
0.24987532 -0.56613684 -0.27734384
0.41767436 -0.32061237 0.50193834
0.65444744 0.19177745 0.29171377
-0.48820668 0.57924122 -0.26427481
0.16698137 -0.56613684 0.48651984
-0.40075287 0.33306205 0.50193834
0.48158595 0.39776748 0.50193834
-0.48069465 -0.03313389 0.50193834
-0.40120935 -0.56613684 0.07030741
-0.44846204 -0.31101507 0.50193834
0.13368765 0.57924122 -0.31203106
0.19772135 -0.33129585 -0.49601650
-0.12555754 0.00564662 0.50193834
0.41201830 -0.56613684 -0.42601237
-0.52605027 -0.56613684 0.21709071
-0.34172150 0.57924122 -0.39616632
0.52508861 -0.09615652 0.50193834
0.42780122 -0.56613684 0.07401819
0.65444744 0.18957108 -0.35127115
0.02501933 -0.56613684 0.33788335
0.65444744 0.54236466 0.06465445
0.45046052 0.57924122 0.42643535
-0.54335386 0.39187217 -0.49601650
0.31330836 0.57924122 -0.39314207
0.65444744 0.45348027 0.24912009
-0.62941319 -0.39867014 0.50193834
-0.64969599 -0.40190461 -0.37287536
-0.64969599 0.37117597 0.23614816
0.65444744 -0.29312986 0.32669735
0.40093839 -0.02244072 -0.49601650
0.49989659 0.22261454 -0.49601650
-0.40790454 -0.56613684 0.43744120
-0.64969599 -0.40170440 0.04601144
0.18470238 0.57924122 -0.13429335
-0.04143669 0.42504576 -0.49601650
-0.64969599 0.01130957 0.20918722
-0.64969599 0.56794012 0.48149645
0.48395148 0.57924122 -0.30099922
-0.31294763 0.57924122 0.14656805
-0.36115837 0.24172805 -0.49601650
-0.03746803 0.57924122 -0.29312375
-0.14909780 -0.56613684 0.36174396
-0.22657494 0.21940610 0.50193834
-0.22952110 -0.56613684 0.10284963
0.65444744 -0.51886910 -0.15019041
0.41768137 0.02870406 0.50193834
0.64781535 -0.41034067 0.50193834
-0.64969599 0.40415233 -0.17902735
0.03317868 0.05918107 0.50193834
-0.55808967 -0.56613684 -0.11822610
0.65444744 0.38244203 -0.32827950
0.65444744 -0.08720922 0.40619665
-0.06102871 0.57924122 0.16672166
-0.34420216 -0.56613684 -0.43546250
0.22003530 0.02426440 -0.49601650
0.48780563 0.39544299 -0.49601650
-0.14827092 0.57924122 0.45565671
0.27142242 -0.56613684 0.09693889
-0.01542807 -0.56613684 -0.37983179
-0.64969599 -0.25019681 0.31119472
0.16664100 0.57924122 0.40990764
-0.33596835 -0.56613684 -0.07940464
-0.64391774 -0.56613684 -0.29654846
0.65444744 0.00097140 -0.37449107
0.17171244 -0.16019924 0.50193834
-0.64969599 0.14865617 0.38566560
-0.64969599 0.22826661 -0.22548421
-0.64969599 -0.55012268 0.31955767
0.20983936 0.26101175 0.50193834
0.35884726 0.57924122 0.15642160
-0.30513427 0.57924122 0.46886089
-0.48924583 -0.07509682 -0.49601650
0.57728666 0.21238756 0.50193834
0.54155833 -0.56613684 0.35623202
-0.13455820 -0.18272842 -0.49601650
0.06416083 -0.05758243 -0.49601650
0.25695190 -0.56613684 0.36500645
-0.64704818 0.57924122 -0.27426451
0.65444744 -0.27329358 -0.46942896
-0.49878302 -0.56613684 -0.41685551
-0.21961747 0.40187991 -0.49601650
-0.64969599 -0.30571941 -0.18051194
0.34214631 0.57924122 -0.02337402
0.65444744 -0.14596796 0.12936258
0.59026361 -0.56613684 0.16484165
0.65444744 0.21717870 -0.07303751
0.49282902 -0.56613684 -0.11168008
-0.52197695 0.41383171 0.50193834
-0.15258655 0.57924122 -0.20317227
-0.57962579 0.57924122 0.35493964
-0.44674221 0.57745934 -0.49601650
0.62904221 -0.07672486 -0.49601650
0.65444744 0.41832155 -0.07884744
-0.46476054 0.57924122 -0.11322573
-0.64969599 0.08525785 -0.14673670
0.59502465 0.57924122 0.35986492
-0.08453073 0.45820335 0.50193834
-0.58060390 0.57924122 0.00783449
0.19925301 0.19232003 -0.49601650
-0.23447941 -0.56071705 0.50193834
-0.18683329 0.57924122 -0.36267239
0.13807735 -0.56613684 -0.12608954
0.35530844 0.33862606 0.50193834
-0.17357506 0.11041915 -0.49601650
-0.58486241 -0.40685892 -0.49601650
0.65444744 0.03012509 -0.05819658
-0.64969599 0.27760658 0.44000494
-0.64969599 -0.10704220 -0.13498609
-0.04048546 -0.56613684 -0.13566281
0.10337010 0.57924122 -0.02436368
-0.28820309 0.57924122 -0.00777998
0.46825263 0.57924122 -0.16549082
-0.64969599 -0.07745465 -0.36763772
-0.41245341 -0.15092830 0.50193834
0.00599558 0.22361162 -0.49601650
0.39430827 -0.26191840 -0.49601650
-0.48243353 0.57924122 0.15458664
0.65444744 -0.24116912 -0.05053826
0.60605854 -0.43995243 -0.49601650
-0.64969599 0.20087020 -0.35783219
-0.09439481 -0.56613684 0.06698374
-0.60272658 0.02524595 0.50193834
-0.46319386 -0.44488975 0.50193834
-0.64969599 0.27772468 0.07044015
-0.50309867 0.10078151 -0.49601650
-0.28298649 -0.04565403 -0.49601650
0.37650919 -0.56613684 -0.23488128
-0.64969599 0.10702150 0.10498542
0.51485366 -0.41434395 0.50193834
0.65444744 -0.43076459 0.10659415
0.12440367 -0.56613684 -0.40517202
0.36501086 0.49229091 -0.49601650
-0.09825125 -0.14108573 0.50193834
0.01035276 0.57924122 -0.41469723
0.19997878 0.57924122 0.24602777
0.65444744 0.32165080 0.28098330
0.57333142 0.49359933 -0.49601650
-0.41571590 -0.28029510 -0.49601650
0.28976110 -0.33886597 0.50193834
-0.64969599 -0.54501820 0.18627164
-0.07831576 -0.47755978 -0.49601650
0.65444744 -0.48371440 0.39863053
-0.64969599 -0.23254988 -0.37865555
-0.64969599 -0.48112759 -0.05227663
-0.64969599 0.08932772 -0.46094885
-0.64969599 0.44762897 -0.06188985
0.65444744 -0.24726668 -0.34576225
-0.05379004 0.57924122 0.30230317
0.52653819 -0.54439050 -0.49601650
-0.64969599 -0.14759271 -0.01453853
-0.30928969 0.57924122 0.32449099
0.03991751 -0.56613684 0.13353404
0.14088738 -0.22114363 -0.49601650
0.47926846 0.13652016 0.50193834
-0.25985667 -0.23071690 -0.49601650
-0.21516170 -0.30717796 0.50193834
0.46654478 0.26611924 0.50193834
-0.50785577 -0.56613684 0.36560610
-0.64969599 -0.28940687 0.19460659
0.21898416 0.38330296 0.50193834
-0.00385936 -0.22146998 0.50193834
0.12875435 0.49649844 0.50193834
-0.56053728 -0.18016367 -0.49601650
0.63371122 0.18668899 -0.49601650
0.65444744 0.23536222 0.17817795
0.54470664 -0.33534017 -0.49601650
-0.64969599 -0.33145499 0.40076381
0.65444744 0.07837847 0.38441628
-0.07794216 0.57924122 -0.04621813
-0.64969599 0.48215404 -0.35448661
0.21584781 0.39291427 -0.49601650
0.50996441 -0.24414834 0.50193834
0.07002632 -0.44922340 0.50193834
-0.66755813 -0.24432451 0.06831898
-0.43023551 0.19393076 0.50193834
-0.64811128 0.33451161 -0.49601650
0.65444744 -0.16533275 -0.14271338
0.40256116 -0.14171441 -0.49601650
-0.31714413 -0.03606184 0.50193834
0.39574382 0.48831365 0.50193834
-0.21680947 -0.43962407 -0.49601650
0.65444744 -0.46602842 -0.02173205
0.65444744 -0.00134118 0.11659689
0.65444744 -0.16653705 0.25013417
-0.60095870 -0.09451676 0.50193834
0.30667824 -0.37508583 -0.49601650
0.65444744 -0.48910117 -0.31747788
-0.18769923 0.57924122 0.15513122
-0.64969599 0.25037932 0.32659122
-0.64969599 -0.49573025 0.44071871
-0.33380902 -0.29073331 0.50193834
-0.64969599 -0.12256887 0.38591388
0.65444744 0.44680414 -0.23136550
-0.18290408 -0.43765196 0.50193834
0.38844800 0.26266554 -0.49601650
-0.64969599 -0.02676646 0.07691611
0.65444744 0.22894634 0.40478814
-0.26046032 0.50868452 -0.49601650
-0.21578336 -0.56613684 0.25430667
-0.06768896 0.33437344 0.50193834
0.65444744 -0.32790118 0.21835406
0.58250022 0.57924122 -0.02803642
0.28026992 -0.03896055 0.50193834
-0.03464400 -0.30834621 -0.49601650
0.10308780 0.57924122 0.10846115
-0.46258521 0.31281734 -0.49601650
0.05892411 0.23382758 0.50193834
0.01653913 -0.34192723 0.50193834
0.08569083 -0.32384482 -0.49601650
0.65444744 0.45099059 0.39113748
-0.17969763 0.10377522 0.50193834
-0.64969599 0.55005890 0.11453467
0.65444744 -0.16955727 -0.42613852
-0.64969599 -0.08637132 0.26313213
0.26209942 -0.22557139 0.50193834
0.34914982 -0.50697732 -0.49601650
0.65444744 -0.02506363 -0.15449502
-0.27387270 0.15742259 -0.49601650
-0.29520559 -0.56613684 -0.18237194
-0.05144883 -0.10981517 -0.49601650
-0.18978547 0.32336965 0.50193834
0.23894459 -0.43663186 0.50193834
-0.64969599 0.49551740 0.29364386
0.47957277 0.05405317 -0.49601650
0.39168748 -0.56613684 0.40686437
-0.33857614 -0.56613684 0.17587449
0.05213442 0.48180068 -0.49601650
-0.64969599 0.08830492 0.28689963
0.65444744 0.17655411 -0.23547092
-0.64969599 0.17682742 0.02093473
-0.52011299 -0.16768527 0.50193834
0.65444744 0.10429908 0.22697031
-0.44447377 -0.56613684 -0.07176425
0.61520433 0.40593326 0.50193834
-0.19356352 0.57924122 -0.06206784
-0.25910386 0.27617800 -0.49601650
-0.31904018 -0.37931338 -0.49601650
-0.57401580 0.57924122 -0.19053069
0.29566044 -0.56613684 0.20066108
0.63296336 -0.04641525 0.50193834
0.65444744 0.55847192 0.23570870
0.59637815 0.57924122 -0.31357571
-0.64969599 -0.37469241 -0.05556987
0.12629470 -0.56613684 0.38976502
-0.64969599 -0.32055232 -0.30676842
0.54458356 0.49681675 0.50193834
0.65444744 -0.35212719 -0.25384063
-0.46639931 0.46239483 -0.49601650
-0.07901000 0.15427120 -0.49601650
0.53353667 -0.56613684 0.25227347
0.65444744 0.43287617 0.03828534
-0.36106125 0.57924122 -0.28415912
0.01252222 -0.56613684 0.23314294
-0.03873448 0.57924122 0.04906562
0.10462044 -0.23811185 0.50193834
0.17006668 -0.56613684 0.08136237
0.65444744 -0.24821368 -0.20309317
0.50074655 -0.56613684 -0.35420632
-0.21545200 -0.56613684 -0.39326122
0.28347936 -0.56613684 -0.41073397
0.24591407 -0.46776929 -0.49601650
0.65444744 -0.34788364 0.41157243
0.28934464 0.57924122 0.42854863
0.00645521 0.57924122 0.38299575
-0.64969599 -0.06190727 -0.24939887
0.65444744 -0.34177110 -0.04811106
-0.49712527 -0.56613684 0.02311847
0.65444744 0.35538802 0.16553840
-0.29434666 0.29334944 0.50193834
0.44635111 0.57924122 0.28803685
0.20171665 -0.07950005 -0.49601650
0.26598060 0.57924122 -0.30494344
0.53200907 0.57924122 0.11026909
0.49097601 -0.06572045 -0.49601650
-0.64969599 -0.45661631 -0.28882918
-0.33787739 -0.56613684 -0.33615896
-0.51744610 -0.26977584 -0.49601650
0.24484493 0.57924122 -0.04378722
0.65444744 0.26352543 -0.28344938
0.42898750 -0.18519406 0.50193834
-0.64969599 -0.48174030 0.10455696
0.30627882 0.57924122 -0.49196014
-0.43826210 0.57924122 0.40558097
-0.15166757 -0.23159285 0.50193834
0.13691410 -0.56613684 -0.28614429
-0.02426846 -0.55997521 -0.49601650
0.21146110 0.13697565 0.50193834
-0.19857490 -0.56613684 -0.16427352
0.15672536 0.57924122 -0.40751651
0.65444744 0.52725440 -0.06946678
0.10434815 0.57924122 -0.21866287
-0.61792994 0.47770128 0.50193834
-0.64472365 -0.56613684 -0.16365185
-0.08209752 0.09323861 0.50193834
0.18213663 -0.56613684 -0.01564072
0.61978823 -0.14320602 0.50193834
0.20086473 0.57924122 -0.23234357
-0.55075282 0.57924122 0.26208100
-0.52166259 -0.56613684 -0.20834380
0.62646437 -0.56613684 -0.37209252
-0.43339288 0.05145127 0.50193834
-0.40587234 0.42961869 0.50193834
0.14305569 -0.46269685 -0.49601650
0.10214979 0.22178565 -0.49601650
0.65444744 0.47983155 0.13735014
0.04214320 -0.56613684 0.49015272
-0.18297015 -0.09669810 0.50193834
-0.30017793 -0.56613684 0.37680009
-0.56330925 -0.49995479 -0.49601650
0.29670855 0.57924122 -0.12850213
0.42588517 -0.44865277 0.50193834
-0.64969599 0.51015306 -0.19424067
-0.36802575 0.52146125 -0.49601650
-0.48182887 0.57924122 -0.40772071
-0.28937635 0.57924122 -0.10271645
-0.04782914 0.54315150 -0.49601650
-0.54955053 -0.56613684 -0.30645308
-0.64969599 0.01087493 -0.40790492
-0.44922188 -0.55129093 -0.49601650
-0.53186154 0.31983188 0.50193834
-0.64969599 0.35067394 0.33969328
0.52575731 -0.00176369 0.50193834
-0.64969599 -0.12089406 0.08371370
0.37117344 0.57924122 0.49643549
-0.07082382 -0.56613684 -0.04648842
-0.64969599 0.36480212 -0.01706144
0.65444744 -0.23773944 0.18903561
0.32273048 -0.56613684 0.01845166
0.43697509 0.57924122 -0.40806612
-0.31796405 0.49274641 0.50193834
-0.62600756 0.14705145 0.50193834
-0.05268956 -0.44559950 0.50193834
-0.51575428 0.11366363 0.50193834
0.17927456 0.57534105 0.50193834
-0.64969599 -0.41980883 0.37206101
-0.52990043 0.53644633 -0.49601650
0.09781013 -0.04278946 0.50193834
-0.13308762 0.34195659 -0.49601650
0.65444744 -0.55198365 0.07505780
0.60809672 0.57924122 -0.49298522
0.65444744 -0.54013693 -0.24043024
-0.14059669 -0.54980832 0.50193834
0.65444744 0.24721795 0.03504137
-0.41891533 -0.01575304 -0.49601650
0.02497508 0.43914491 0.50193834
-0.39500168 -0.56613684 0.34652463
0.65444744 0.10635439 -0.38989562
-0.41720453 0.57924122 -0.20631263
0.41790560 -0.07745565 0.50193834
-0.22657993 0.02624532 -0.49601650
0.33820811 0.04396734 -0.49601650
0.32948774 0.57924122 0.06707825
0.65444744 0.14073369 0.45370564
-0.23966700 0.01183468 0.50193834
-0.64969599 0.39634997 0.14861724
0.44989493 0.57924122 0.15617333
0.39600712 0.57924122 -0.32443339
-0.64969599 0.34885502 0.49650255
-0.55013818 -0.47845376 0.50193834
-0.07118140 -0.56613684 -0.30846423
0.65444744 0.01187657 0.32295731
-0.26186883 0.57924122 -0.43869898
-0.30084965 -0.51502299 -0.49601650
-0.64969599 -0.39803246 0.13832419
0.46837476 -0.56613684 -0.00650312
-0.56406313 0.57924122 0.11632860
-0.42042896 0.14787234 -0.49601650
-0.49036503 -0.56613684 0.11283084
-0.45870504 -0.56613684 0.27654752
0.65444744 0.05627865 -0.30143669
-0.64969599 -0.23456204 -0.12602647
0.30648604 -0.56613684 0.44727275
-0.64969599 -0.15907103 -0.42957917
0.30619276 -0.23500352 -0.49601650
0.55159807 0.33286583 -0.49601650
0.65444744 -0.50244147 0.15965308
0.19969447 0.28144068 -0.49601650
-0.60621035 -0.56613684 0.40773731
-0.06016127 -0.56613684 0.31207865
0.33362818 0.05795045 0.50193834
0.64058751 -0.56613684 0.36834100
-0.14511552 0.45030588 -0.49601650
-0.25463706 0.57924122 0.39591262
-0.49089357 0.22445953 -0.49601650
0.65444744 0.13538693 -0.10647248
0.39494899 -0.56613684 -0.33946449
-0.49704921 -0.40567565 -0.49601650
0.07611896 0.14782329 0.50193834
-0.64969599 0.24244682 -0.45288521
0.46758494 0.48061940 -0.49601650
0.65444744 -0.06123495 -0.28464967
0.03004182 0.57924122 0.15614933
-0.37948504 0.57924122 -0.09595390
-0.16990913 0.57924122 0.36105922
-0.52696532 -0.27355888 0.50193834
-0.64969599 0.29244748 0.15612729
0.60318440 -0.30672449 0.50193834
-0.46192351 -0.54555279 0.50193834
-0.58592552 0.57924122 -0.35759395
-0.41212708 -0.56613684 -0.38039139
0.44910309 -0.56613684 0.20025365
-0.64969599 -0.17317417 0.27253324
-0.64969599 -0.31790948 0.02623612
0.08777227 0.57924122 0.44406030
-0.67775011 0.09838614 -0.02128878
0.02404718 0.35713789 -0.49601650
0.34114224 -0.43602321 0.50193834
-0.56524134 0.57924122 0.49017376
0.65444744 -0.41123161 0.19904134
-0.32349896 0.33233827 -0.49601650
-0.64969599 0.18455270 -0.15210246
0.65444744 0.26653367 -0.38818276
-0.57470351 0.57924122 -0.07861469
0.65444744 -0.37150398 -0.48150292
-0.24117762 -0.56613684 -0.24802037
-0.05602864 0.28175500 -0.49601650
0.51102054 -0.56613684 0.09138303
0.23001102 0.10843002 -0.49601650
-0.64969599 -0.07287023 0.15343340
0.65444744 -0.20099102 0.41604221
0.50404102 -0.43070650 -0.49601650
0.65444744 0.56259632 0.42630121
-0.51234263 0.50369412 0.50193834
0.44983289 -0.56613684 -0.18430100
0.65444744 0.50031054 -0.32780799
0.65444744 -0.09221800 -0.39287481
0.64553189 -0.56613684 0.26648873
-0.12510006 0.16753645 0.50193834
0.27323836 0.23185445 -0.49601650
-0.64969599 0.31502271 -0.41096422
-0.27790803 0.57924122 -0.29447323
0.65444744 0.44197294 -0.45094112
-0.35050294 0.57924122 0.22139134
-0.41847688 -0.56613684 0.20069613
0.21981306 -0.56613684 -0.14379655
0.65444744 0.11834566 -0.00393220
0.65444744 0.29225329 -0.03538560
-0.03258909 0.05959611 -0.49601650
-0.55544686 0.30954584 -0.49601650
-0.35037178 -0.56613684 0.49748459
0.54162836 0.57924122 -0.37605575
0.16463685 -0.47344139 0.50193834
-0.64969599 0.51093489 -0.47075936
-0.11410626 -0.40293971 -0.49601650
-0.32760137 -0.56613684 0.03266602
-0.07292037 -0.56613684 0.39370024
0.65444744 -0.44200563 -0.18027969
0.24927568 -0.54344648 0.50193834
-0.64969599 -0.24996156 0.41097978
0.63415670 0.00572813 -0.49601650
0.19981261 -0.56613684 0.29440069
0.46880424 -0.56613684 0.43307248
-0.64969599 0.57845140 0.40085992
0.48941034 -0.27573121 -0.49601650
0.12290306 -0.56613684 -0.48640317
0.44724408 0.12855761 -0.49601650
0.65444744 0.19942166 -0.15755130
0.02415350 0.57924122 -0.24050231
0.59062296 -0.56613684 -0.19669031
0.14363733 0.13368411 -0.49601650
0.65318704 0.47679427 0.50193834
-0.64969599 0.35138872 -0.09630447
0.65444744 0.26360852 -0.48551419
0.65444744 -0.20167975 0.01906292
0.65444744 0.52781105 0.34573376
0.51851261 -0.56613684 0.50109148
-0.64969599 -0.48721516 -0.45102620
0.65444744 -0.35242650 0.14289309
-0.19488594 -0.56613684 0.17408256
0.29732320 0.45126188 -0.49601650
-0.29286209 0.17632087 0.50193834
0.65444744 -0.37097442 0.31299764
-0.60065538 0.27575657 0.50193834
0.18718906 -0.08311643 0.50193834
-0.64969599 0.53945953 0.03666921
-0.64969599 0.12219279 -0.23001707
0.42095390 -0.56613684 -0.07279444
0.43934563 0.57924122 -0.04210372
0.65444744 -0.50464386 -0.41934320
0.07711273 -0.56613684 0.27958879
0.62247407 0.32817081 0.50193834
-0.56629050 -0.34099525 0.50193834
0.65444744 0.51206315 -0.14601992
0.01708862 -0.56613684 0.05564437
0.46118504 -0.56613684 0.33288699
0.65444744 -0.23079699 0.09807000
0.44699180 -0.56613684 -0.26806688
-0.24980387 0.57924122 0.05981415
0.19130047 0.57924122 0.16252217
0.65444744 0.21007209 0.49315295
-0.37207010 0.55782926 0.50193834
0.09811807 -0.56613684 -0.05951740
-0.64969599 0.15991226 -0.42863721
-0.28037170 0.37978920 0.50193834
-0.00888826 -0.03261233 -0.49601650
0.29445013 0.29119214 0.50193834
0.43661970 0.33781716 -0.49601650
0.57723159 0.57924122 -0.22546518
-0.64969599 0.35407463 0.06035823
-0.37602833 -0.43736365 0.50193834
-0.04056995 -0.06716851 0.50193834
0.27543771 0.57924122 0.23260535
0.65444744 -0.11570349 0.30739963
-0.23619327 0.57530296 0.50193834
0.29444113 -0.56613684 -0.16086285
0.37001523 0.57924122 -0.10652354
0.37167197 -0.25945675 0.50193834
0.03174485 -0.56613684 -0.31974334
-0.11648181 0.57924122 -0.33294049
0.17846870 0.57924122 0.33449870
0.30850422 -0.56613684 0.30871707
0.10213197 0.40071964 -0.49601650
-0.57530117 -0.56613684 0.32114339
-0.10348987 -0.56613684 -0.37736115
-0.25792861 -0.56613684 -0.45959139
0.01265606 0.57924122 -0.00695478
-0.57359630 -0.56613684 -0.40336508
0.65358049 -0.19915104 -0.49601650
0.27034828 -0.11803400 0.50193834
-0.24410275 -0.56613684 -0.01847216
-0.40121636 -0.56613684 -0.13399602
-0.08008125 0.57924122 -0.43798822
-0.12224399 0.57924122 0.21091507
0.65444744 0.30185360 0.35377538
-0.64969599 0.50409257 0.21673533
0.44191235 -0.47319612 -0.49601650
0.19186607 -0.56613684 -0.37198141
-0.70072871 0.46651927 0.01629235
0.12839897 0.31232178 0.50193834
0.65444744 -0.27809075 -0.11537904
-0.64556456 -0.36347637 -0.49601650
0.65444744 0.56243920 0.13644917
0.22624396 -0.56613684 0.43292934
-0.50623107 0.02630889 -0.49601650
0.64468992 -0.50823271 0.50193834
-0.05094479 -0.56613684 -0.20928282
-0.64969599 0.06727215 0.37028411
0.57184279 0.40426546 -0.49601650
0.65444744 0.40715557 0.30689108
-0.13234381 -0.25673884 -0.49601650
-0.53008163 -0.56613684 -0.48395252
-0.37633765 0.57924122 0.10832601
-0.07797940 -0.22953264 0.50193834
0.12487017 -0.56613684 0.13953950
-0.64969599 0.30086851 -0.23765627
-0.11913466 -0.47945482 0.50193834
-0.46127683 -0.14308988 -0.49601650
-0.64969599 -0.47153232 0.18839091
-0.29896465 0.03772805 -0.49601650
-0.56894934 0.47447279 -0.49601650
-0.54546314 0.57924122 0.41968313
0.28527230 -0.56613684 -0.06190737
-0.11440959 0.39147171 0.50193834
-0.64969599 -0.23432878 -0.27080983
-0.03740776 -0.56613684 0.15974116
0.37302145 -0.34458509 -0.49601650
-0.12737851 -0.56613684 -0.18027069
-0.64969599 -0.02408809 0.30104679
0.42198500 -0.56077713 0.50193834
-0.08944220 0.57924122 0.41276771
0.31434247 0.12794194 0.50193834
-0.64969599 -0.15855348 0.44955617
0.65444744 0.56313694 -0.00638382
-0.01474314 0.57924122 0.22257359
-0.64969599 0.48419824 0.41622543
0.24233823 0.54534388 -0.49601650
-0.64969599 0.30590290 0.26754287
0.48263708 -0.56613684 -0.44210660
-0.13201548 -0.38615370 0.50193834
0.10414093 -0.51289374 0.50193834
-0.64969599 -0.33013558 0.27432013
0.65444744 0.18824366 0.07650896
-0.64969599 -0.36250532 -0.22486854
0.26611373 0.33721352 -0.49601650
-0.27167034 -0.32512221 -0.49601650
-0.34974113 -0.18619414 0.50193834
-0.33498931 0.57924122 0.40347773
0.54672188 -0.56613684 -0.40972790
-0.48253062 0.57924122 -0.02533882
-0.16017869 -0.48354721 -0.49601650
-0.64969599 0.38643733 -0.44669056
0.11332078 0.57924122 0.17933120
0.02867425 0.29868615 0.50193834
-0.11757699 0.25175983 0.50193834
0.50476182 0.55616546 0.50193834
-0.13139281 0.57924122 -0.09721555
-0.62478328 -0.14907931 -0.49601650
-0.64969599 -0.35170576 -0.12309532
-0.64969599 0.14116615 -0.09549330
-0.18439066 0.18733068 -0.49601650
-0.24623205 -0.56613684 -0.08964904
-0.71491700 -0.20132238 0.03743483
-0.29730386 0.44545665 -0.49601650
-0.31846857 -0.50144339 0.50193834
-0.05148616 0.57924122 -0.36256027
0.07201636 -0.12797065 -0.49601650
-0.64881104 0.57707191 -0.49601650
0.65444744 0.51701146 -0.24039119
-0.46102256 0.25759709 0.50193834
-0.37145543 -0.51245522 -0.49601650
-0.44404632 -0.24056247 0.50193834
-0.64969599 0.19167234 -0.28584597
-0.64579481 0.57924122 -0.02148779
-0.60116196 -0.56613684 -0.02685105
-0.64969599 -0.20217028 -0.20288996
-0.64969599 0.00654725 -0.23309436
0.65444744 -0.10066936 -0.17042713
-0.19148929 -0.08352527 -0.49601650
-0.14480320 0.52661777 0.50193834
0.61722147 -0.56613684 -0.11417875
-0.23829451 -0.39466783 0.50193834
-0.48246756 0.57924122 -0.33783674
0.53790438 0.09852920 0.50193834
0.65444744 0.29452372 -0.11451311
0.65444744 -0.30506667 -0.38482317
-0.64969599 0.40475401 -0.36207575
-0.25378817 -0.22486563 0.50193834
0.65444744 -0.03692456 0.02282896
0.65444744 0.27260518 0.10123619
0.54870492 0.57924122 -0.44528604
-0.64969599 -0.03824317 -0.14433913
-0.36125246 -0.35449675 0.50193834
0.65444744 -0.41673252 -0.30650112
0.41945326 0.09797249 0.50193834
-0.64969599 -0.48275137 -0.12656005
0.65444744 0.37084261 -0.25999221
0.48024753 -0.49151075 0.50193834
-0.64833951 0.57924122 -0.19601457
-0.20879687 0.57924122 -0.29453528
-0.64969599 -0.29740950 -0.40219080
0.57168961 -0.45335984 0.50193834
-0.64969599 0.19322501 0.08781029
0.01057461 -0.50435054 0.50193834
-0.31511995 -0.44787094 -0.49601650
-0.64969599 -0.20269184 0.36128345
0.36844152 0.40590921 0.50193834
0.59936130 0.57924122 -0.13026202
0.65444744 -0.48531210 0.05918087
-0.11943599 -0.10162939 -0.49601650
0.39111486 0.42907709 -0.49601650
0.58639842 -0.13016200 -0.49601650
-0.06948138 -0.56613684 -0.43664777
-0.64969599 -0.04732112 0.49382368
-0.64969599 0.26414710 -0.13185273
0.02869988 -0.56613684 -0.45359796
0.65444744 0.41951084 -0.38534674
0.07600614 0.57924122 -0.43259242
0.19576727 -0.18110467 -0.49601650
-0.63370687 -0.56613684 -0.09662251
0.42736676 0.32158574 0.50193834
-0.40210631 0.13212645 0.50193834
0.22466928 -0.56613684 0.18685827
-0.62051469 -0.56613684 0.10653509
0.59752232 0.57924122 0.06556913
0.65444744 0.12430105 0.29855815
0.51140195 0.33686712 0.50193834
0.11509168 0.57924122 0.35796189
0.06442842 0.57924122 -0.29472849
-0.64969599 -0.55834550 0.25244468
0.65444744 -0.53157574 -0.03780970
0.33693275 -0.56613684 0.11312416
-0.39024058 0.34228894 -0.49601650
-0.64969599 0.51442665 -0.05233750
0.22233377 -0.33769071 0.50193834
-0.09113301 0.49166626 -0.49601650
-0.64969599 -0.28636363 -0.03309875
0.27692133 0.57818407 0.50193834
0.49612552 -0.30982381 0.50193834
0.10133202 -0.56613684 0.45854080
0.01557770 0.28999084 -0.49601650
-0.27119786 -0.11166316 -0.49601650
-0.42742649 0.40060353 -0.49601650
-0.42298472 -0.08442503 -0.49601650
0.12468297 0.57924122 -0.08774959
0.65444744 0.14766912 0.38723430
0.65444744 0.36863023 -0.13955198
0.40960070 0.57924122 0.23223194
-0.64969599 0.07114080 0.17951238
0.53205210 0.10891053 -0.49601650
0.46311814 -0.02482648 0.50193834
0.65444744 -0.29789901 -0.29274938
0.40512091 0.57924122 -0.18704395
-0.21775247 0.57924122 -0.21705416
0.50890428 0.57924122 -0.03677660
-0.48587120 -0.09941401 0.50193834
0.43525824 0.57924122 0.07169740
-0.56019497 0.15094663 -0.49601650
0.30152673 -0.56613684 -0.31908163
0.07314797 -0.15108547 0.50193834
0.65444744 -0.11624908 -0.09806847
0.33665642 -0.14923146 -0.49601650
-0.03350547 -0.56613684 0.01285865
0.36585775 0.26106480 0.50193834
-0.42047101 0.57924122 -0.31480202
-0.57630420 0.57924122 -0.47635940
-0.64969599 -0.23162688 0.24184328
0.13664281 -0.29582879 0.50193834
0.29375041 0.57924122 0.16716914
0.25059709 0.07933379 0.50193834
0.09232255 -0.56613684 0.21540190
0.59946841 -0.29813525 -0.49601650
0.53370684 0.57924122 -0.17279266
0.65444744 -0.44461745 -0.45158881
0.43578780 -0.21076950 -0.49601650
-0.24401866 -0.56613684 0.41115698
0.26772147 -0.02084240 -0.49601650
-0.25751615 -0.56613684 0.30490294
-0.08017926 0.57924122 0.09984691
-0.64969599 0.04153463 0.10307237
0.16096590 0.17863736 0.50193834
-0.52261168 -0.41753739 0.50193834
0.24082561 -0.23715882 -0.49601650
0.65444744 0.44686419 -0.14185746
-0.64969599 -0.33528510 0.12065124
0.21939261 0.57924122 -0.38965535
0.25064313 0.57924122 0.29284200
0.33463225 0.57924122 -0.28040910
0.65444744 0.04367603 -0.15304047
-0.40431270 -0.08637963 0.50193834
-0.59144050 -0.32744271 -0.49601650
-0.06510098 -0.25091660 -0.49601650
-0.39640221 0.25055555 0.50193834
0.54513115 -0.56613684 -0.07314722
-0.64969599 0.20367922 0.28147084
0.65444744 0.33125612 -0.38873535
-0.64969599 0.42563337 0.27110770
-0.64969599 -0.39566889 -0.43728048
-0.64969599 0.03597146 0.45874706
-0.22581914 -0.56613684 -0.31081375
0.65444744 0.55922377 -0.29344910
0.39394993 0.57924122 0.01527846
-0.19533643 -0.23454402 -0.49601650
-0.55285108 -0.01585735 0.50193834
0.65444744 0.28164989 0.22327836
0.16185687 0.35195133 -0.49601650
0.50439447 0.57924122 0.39088222
-0.57954973 0.57924122 0.17903689
0.47287962 -0.33813119 -0.49601650
-0.07331880 -0.03634314 -0.49601650
-0.34138516 -0.56613684 -0.22734620
-0.36911589 -0.56613684 -0.01656481
-0.64969599 0.14218023 0.16530214
-0.34024292 0.12850755 -0.49601650
0.07405984 -0.56613684 -0.13068947
0.55480349 -0.07243366 -0.49601650
-0.26068357 0.12081731 0.50193834
0.40431204 -0.56613684 -0.00467308
0.13923159 0.57924122 0.02873290
0.58894217 -0.56360716 -0.49601650
-0.47138566 0.57924122 0.09163740
0.43593794 0.57924122 -0.25894207
-0.10784154 -0.56613684 -0.11955652
0.36039290 -0.07165483 -0.49601650
0.65444744 0.36782637 0.01395904
0.58460349 -0.56613684 0.29023120
-0.55261981 -0.56613684 0.10000067
0.65444744 -0.40529925 -0.04836984
0.65444744 -0.36683097 0.06589267
-0.14253075 0.57924122 -0.26588354
0.24340238 0.57924122 0.03182051
0.36170229 -0.37595677 0.50193834
-0.33670613 -0.10383676 -0.49601650
0.32630831 0.27540720 -0.49601650
-0.64969599 0.51360875 0.35440907
-0.58196229 -0.00221625 -0.49601650
-0.05377732 0.57924122 0.46514592
0.40995809 0.57924122 -0.48521391
-0.64969599 -0.47976413 0.35161507
0.65444744 -0.13982938 -0.35112199
0.65444744 0.48600918 -0.39189777
-0.49107578 0.57924122 -0.17081654
0.11502560 0.47476509 -0.49601650
-0.64969599 0.00128418 -0.07884624
-0.20182739 0.57924122 -0.12480115
-0.53460449 -0.11914019 -0.49601650
0.26451102 -0.08678756 -0.49601650
-0.38103169 -0.24483906 0.50193834
0.65444744 0.13963050 -0.17782907
0.00521964 0.14297509 -0.49601650
-0.31013662 0.57924122 0.07786863
0.45262486 0.57924122 -0.10450738
-0.64969599 -0.08952790 0.02922392
0.65444744 -0.35056251 0.48362571
-0.01592230 -0.46984249 -0.49601650
-0.27865982 0.37640557 -0.49601650
-0.13006037 -0.56613684 -0.02284395
0.11671443 0.07691830 -0.49601650
-0.64969599 0.20439599 0.15325020
0.06355087 -0.51216996 -0.49601650
0.15972358 0.00706763 -0.49601650
-0.41005987 -0.51031893 0.50193834
0.65444744 -0.08361406 0.13576744
-0.64969599 0.48824060 0.10437977
0.08216415 0.14544073 -0.49601650
0.65444744 -0.14585885 0.04734357
-0.64969599 -0.41373831 -0.13131215
0.13934070 -0.08423232 -0.49601650
-0.36823699 0.18562585 0.50193834
-0.25570121 0.57924122 0.17175306
0.52308148 0.00912871 -0.49601650
-0.48716459 0.57924122 0.36661115
-0.11084677 -0.56613684 0.26271167
0.35526040 -0.56613684 -0.17528434
0.65444744 -0.18144503 -0.20310119
-0.64969599 -0.08972201 -0.48040876
-0.02340764 -0.38989872 0.50193834
-0.08838996 0.22839575 -0.49601650
0.65444744 -0.52674758 0.21893770
0.65444744 -0.47571582 -0.10514405
0.10591884 0.54872853 -0.49601650
0.65444744 0.25316131 0.30199185
-0.37886137 -0.02834195 0.50193834
-0.11397512 0.57924122 0.28676149
0.13028499 0.57924122 0.27116677
0.65444744 -0.42263484 0.41001976
0.14344110 -0.30093226 -0.49601650
0.65444744 0.12098949 -0.26325572
0.46752486 -0.13657089 0.50193834
0.06471933 0.00439716 -0.49601650
0.00290558 -0.15985888 0.50193834
0.50808638 0.57924122 0.29341164
-0.46351820 -0.56613684 -0.29107958
-0.68521112 0.08506444 0.05923633
0.49097201 0.04941308 0.50193834
-0.06277278 -0.36842969 -0.49601650
-0.50450122 -0.34303543 0.50193834
-0.64969599 -0.35074472 0.18049245
0.65444744 0.50492048 0.01432374
-0.64969599 -0.23519072 -0.44037879
0.33790979 -0.44627523 -0.49601650
-0.31359932 -0.20039538 -0.49601650
0.04622368 -0.56613684 -0.37987286
-0.64969599 -0.39718753 -0.30507562
0.65444744 -0.27040350 0.00361511
0.35479489 0.00016630 0.50193834
0.21905124 -0.01848477 0.50193834
-0.43453011 -0.56613684 -0.43765885
0.00721592 -0.35337654 -0.49601650
0.65444744 -0.18376352 -0.07241394
-0.43416473 0.57924122 0.19253637
-0.03588122 0.13363005 0.50193834
-0.64969599 0.09037524 0.43048471
0.65444744 -0.13207306 0.19946080
-0.07559514 0.51881838 0.50193834
0.19909182 0.32129943 0.50193834
-0.49080449 -0.56613684 0.42442122
-0.63419336 0.03079421 -0.49601650
-0.20849054 0.46209452 -0.49601650
-0.64969599 -0.51064229 -0.32177052
0.64361084 0.52950490 -0.49601650
0.16558187 -0.23312150 0.50193834
0.65444744 0.07833092 -0.44425794
-0.64069331 -0.43177867 -0.49601650
0.65444744 0.05743710 0.04924921
-0.25396833 0.57924122 0.26606828
-0.64969599 -0.22209266 0.17646211
0.65444744 0.41494593 0.44043937
0.65444744 -0.04913216 0.32565624
0.43580180 -0.56613684 0.13455415
0.29822719 0.57924122 0.36279109
-0.64969599 -0.05768124 -0.42534864
-0.64969599 0.16540815 0.44880337
0.65444744 -0.53343773 0.31884789
0.65444744 0.42692077 0.10721682
0.18240492 -0.56613684 -0.19168794
0.27912068 0.37531239 0.50193834
0.30300331 -0.17630953 0.50193834
-0.64969599 -0.03726903 -0.03209898
-0.38554054 -0.33283350 -0.49601650
-0.29872137 -0.56613684 0.43735507
0.65444744 -0.41666242 0.01329974
0.61351651 -0.49999890 -0.49601650
0.48688164 0.19650953 0.50193834
0.55350113 0.26791215 0.50193834
-0.57131284 0.36553693 0.50193834
-0.01421707 0.57924122 -0.19391333
-0.64969599 -0.55243719 0.00628972
-0.10861938 0.57924122 -0.15305547
0.13926864 0.02650520 0.50193834
-0.21890672 0.57924122 0.44441667
-0.64969599 -0.50433552 -0.21989121
0.65444744 -0.00733701 -0.25803611
-0.07802404 -0.56613684 0.45355147
0.65444744 -0.24615246 0.36408246
0.22964860 0.47662410 0.50193834
-0.01948703 -0.56613684 -0.27807060
0.13648964 0.43709168 0.50193834
-0.10106927 -0.08129647 0.50193834
-0.64969599 -0.16361892 -0.11555823
0.65444744 0.29944399 -0.33807701
-0.64969599 0.44575799 0.32742712
-0.64969599 0.40511137 0.47098416
-0.64969599 -0.17426834 0.11058544
-0.64969599 0.46241987 -0.23019025
0.59673548 -0.36680093 -0.49601650
-0.26275077 -0.39911059 -0.49601650
-0.64969599 0.06989436 -0.39919558
-0.11217819 0.40062556 -0.49601650
-0.64969599 0.19893713 -0.08139197
0.26944232 -0.56613684 0.26389596
-0.54175913 -0.56613684 -0.02579631
-0.54992092 -0.56613684 0.15931472
0.06717797 0.57924122 -0.11884376
0.06876447 -0.39634064 -0.49601650
0.65444744 -0.54474288 0.42184445
-0.46656048 0.39283520 0.50193834
-0.64969599 -0.52938944 -0.40946659
0.07744548 -0.29549745 0.50193834
0.00633694 -0.44115272 0.50193834
-0.38678589 0.57924122 0.43478233
0.20300603 -0.39017302 -0.49601650
-0.63179976 0.13340981 -0.49601650
-0.38589191 0.50040263 0.50193834
-0.26794535 -0.56613684 0.22661093
0.35996345 0.57924122 0.34454751
-0.50054193 0.05670611 0.50193834
0.44306362 -0.24240544 0.50193834
